# .PCD v0.7 - Point Cloud Data file format
VERSION 0.7
FIELDS x y z
SIZE 4 4 4
TYPE F F F
COUNT 1 1 1
WIDTH 1532
HEIGHT 1
VIEWPOINT 0 0 0 1 0 0 0
POINTS 1532
DATA ascii
0.17062999 0.19282 0.35771
0.46204001 0.55703002 0.01036
-0.51397997 0.57550001 -0.28189999
0.20465 -0.54477 0.25907001
0.032400001 -0.27912 0.51051998
-0.41848999 0.52389002 -0.14466999
0.5244 0.32508999 -0.065629996
0.45763999 0.43814 -0.11629
-0.04047 0.05909 0.41760999
-0.65688002 0.45467001 -0.089040004
0.18188 -0.92144001 0.39302
0.75005001 0.79891998 -0.4664
-0.0088900002 -0.36504999 0.56885999
-0.53544998 -0.31999999 0.13242
-0.31415001 -0.23498 -0.02091
0.71354997 0.82782 -0.28962001
-0.32595 0.69420999 -0.02447
-0.48023999 -0.92075998 0.28933999
-0.43167001 -0.19492 0.29271999
-0.29049 -0.24637 0.33331001
0.01688 0.58858001 0.51133001
-0.24938001 -0.40555999 0.14892
0.36309999 -0.7712 0.17741001
-0.39026001 -0.54334998 0.27838999
0.01442 -0.27551001 0.54978001
0.13458 -0.26535001 0.041370001
0.82397997 0.71768999 -0.39026999
0.15813001 0.20166001 0.36875001
0.32183 0.33392999 0.19837999
-0.27752 0.73764002 0.26258001
-0.10373 0.52063 0.50998002
0.26493999 -0.76608998 0.15898
0.47251001 0.31740999 0.032430001
-0.53681999 -0.89809 0.23503
-0.05824 0.67761999 -0.41962001
0.41248 0.42432001 0.19732
-0.46417999 -0.69189 0.06154
0.02114 0.90307999 -0.081689999
-0.46134999 -0.57503003 0.30111
0.43472999 -0.33328 0.19597
0.72557998 0.47615001 -0.31358001
-0.76309001 0.75686002 -0.51546001
0.23093 0.78233999 0.15898
0.76942998 0.58016002 -0.060180001
-0.32448 -0.49147999 0.1211
0.058320001 0.46217 -0.43044999
0.2886 -0.42767999 0.26034999
0.24275 0.64907998 -0.033709999
-0.37795001 0.56386 0.25533
-0.46919999 -0.98164999 0.15114
-0.41981 -0.98089999 0.24361999
0.37254 -0.98039001 0.05161
-0.11058 0.25244001 0.44802999
-0.75944 0.49636999 -0.72696
0.26581001 0.22843 0.035769999
0.73824 0.83927 -0.44600999
0.20231 0.67328 0.41220999
-0.50019002 -0.59781998 0.030160001
0.11894 0.83771002 -0.21033999
-0.40202001 0.58539999 0.036109999
0.21494 0.44514 0.44161999
0.67868 0.67769003 -0.11811
0.37027001 -0.31413001 0.27234
-0.06092 0.67132998 -0.43706
-0.53986001 0.62083 -0.27175999
0.23568 -0.84722 0.21456
0.0339 -0.28523999 0.42324999
-0.39001 -0.093879998 0.27923
-0.56721997 -0.91347998 0.20985
-0.55251002 -0.64324999 0.18696
-0.55466998 -0.46432 0.091849998
-0.50524998 -0.20231 0.099830002
0.46149999 -0.97250003 0.056389999
0.15496001 0.69590998 -0.27882001
0.51837999 -0.99023998 0.11765
0.14025 0.52372998 0.48956001
0.20387 0.73607999 -0.064960003
-0.23406 0.43834001 0.46593001
-0.26276001 0.15248001 0.0854
0.41744 0.54716003 0.14441
0.22023 -0.72649997 0.36377999
-0.44918001 0.58537 -0.07339
0.81323999 0.70931 -0.47578999
-0.8272 0.57549 -0.54263997
-0.53986001 0.50515997 -0.29214999
-0.56761003 -0.97087997 -0.12183
0.34474 -0.40777999 0.25564
-0.10166 0.67308003 -0.42936
0.10099 0.12208 0.41575
0.19660001 -0.54715002 0.23932999
0.18396001 -0.75072998 0.20832001
-0.20093 0.73822999 -0.092009999
-0.58656001 -0.98088002 0.1084
0.12615 0.00428 -0.0096199997
0.10371 0.52168 -0.32843
-0.49739 0.50862002 -0.21961001
-0.53918999 -0.92883998 -0.05435
0.053849999 0.4456 -0.35541001
0.38021001 -0.98782003 0.057009999
-0.49726 -0.64305001 0.043790001
0.18903001 -0.76747 0.21904001
0.27553001 0.38176 0.37785
-0.22148 0.67365003 0.39177999
-0.64880002 0.81185001 -0.57707
0.26949999 0.89844 -0.29093999
-0.42750001 -0.82341999 0.29725
0.24117 -0.98508 0.15721001
-0.2401 0.25586 0.39136001
0.23062 -0.63735998 0.34334001
0.2536 -0.64600003 0.085299999
-0.80628997 0.60737002 -0.36811
0.62603003 0.71776998 -0.23464
-0.61874998 0.38558 -0.0471
0.21514 -0.51396 0.22411001
-0.26589 0.16222 0.15899999
-0.70108002 -0.94222999 0.088979997
-0.51367998 -0.37667 0.15332
-0.36871001 0.49794 0.31742001
0.38214999 -0.18505999 0.26102999
-0.16114999 0.85048997 0.00184
-0.27480999 -0.23311999 -0.01468
0.59171999 0.52960002 0.0067199999
-0.17147 0.76687998 -0.28309
0.08924 -0.22759999 0.069200002
0.37235999 -0.52974999 0.30500001
-0.12909999 0.79251999 -0.31606999
-0.11261 0.88782001 -0.02805
-0.36548001 -0.047189999 0.20818999
-0.25106999 -0.078100003 0.33340001
-0.54786998 0.41152 -0.23208
0.14293 -0.34569001 0.17493001
-0.09324 0.89954001 0.18572
0.70178002 0.39778 -0.1364
-0.097489998 0.84898001 -0.20789
-0.16971 0.57466 -0.33125001
0.29170001 0.40922001 -0.090429999
0.19695 -0.87283999 0.35774001
-0.78494 0.60987997 -0.20224001
-0.56384999 -0.50806999 0.066540003
-0.64235002 0.81437999 -0.58904999
-0.32449001 -0.56555003 0.03579
-0.48372999 -0.25435999 0.00013
0.28784999 0.33436 0.33577999
0.036789998 -0.15494999 0.02025
-0.53704 -0.31999001 0.099179998
0.072240002 -0.24899 0.15109999
0.11369 0.52401 -0.46061999
0.049570002 0.4481 -0.18751
-0.25167 0.12548 0.090510003
-0.21232 0.63490999 -0.22375999
-0.26238999 0.17702 0.0063299998
-0.14891 -0.00178 -0.01963
0.61760998 0.38641 -0.23616999
-0.37605 -0.46088001 0.21166
-0.23458 0.70585001 -0.07999
0.50856 0.49614999 -0.1584
-0.42203999 -0.86409003 0.30002999
0.82808 0.68884999 -0.36811
-0.37226 0.32499999 0.12427
0.21393 0.78906 0.12498
0.63334 0.38927001 -0.10739
0.25218999 -0.91518003 0.13635001
-0.49735999 -0.18492 0.086259998
-0.097989999 0.51314998 -0.39318001
-0.31130999 -0.43245 0.19198
0.67078 0.38532001 -0.20355999
-0.01857 0.44797 -0.54778999
-0.29554 -0.76652002 0.19751
-0.51245999 -0.21726 0.1383
0.52587003 -0.99439001 0.08196
0.038400002 -0.059300002 0.39377001
-0.065410003 -0.40801999 0.76137
0.33295 -0.33133 0.28591999
0.59048003 0.66621 -0.14681999
0.46033999 -0.94072998 -0.01113
0.40096 0.31101 -0.016140001
0.68533999 0.87369001 -0.51116002
-0.00966 0.83612001 -0.25137001
-0.16651 -0.096709996 0.0055
-0.39816999 -0.29640001 0.29227999
0.18175 0.78026003 -0.039349999
0.43939 -0.45489001 0.072839998
0.15617999 0.92738003 -0.28038999
0.26381001 0.33625999 -0.11651
0.0019 -0.16697 -0.00978
-0.20183 0.84378999 0.18624
0.19722 -0.027000001 0.32629001
-0.42084 -0.77376997 0.30634001
0.72486001 0.80194998 -0.26736999
0.15958001 0.36688 0.46044999
-0.80706 0.63871002 -0.57037997
0.57634002 0.66829997 -0.16934
-0.0086099999 0.72255999 0.46504
0.23135 0.58012998 0.42537001
0.2789 -0.0029 0.1763
0.54842001 0.54093999 -0.18803
0.33160999 -0.76107001 0.14356001
-0.43887001 0.57089001 0.0744
0.75184 0.74671 -0.51100999
-0.60259998 -0.90034997 0.17411999
-0.77789998 0.67088997 -0.27742001
-0.39800999 -0.19202 0.31503001
-0.68343002 0.66621 -0.51550001
0.43458 -0.64144999 0.15721001
0.01203 0.33781999 0.46424001
-0.36295 0.43274999 0.30974999
0.41101 -0.62037998 0.31200999
-0.43011001 -0.38800001 -0.02375
-0.058189999 0.65989 -0.44745001
-0.68571001 0.61260998 -0.50972998
0.56269997 0.66632998 -0.21359
0.32501 0.36133 0.22439
-0.61622 0.56415999 -0.05319
-0.16140001 0.96186 -0.31575
0.78746003 0.72373998 -0.49996999
-0.14277001 -0.053970002 -0.01312
-0.60349 0.38255 -0.24394999
-0.52276999 0.50998998 0.0858
-0.17258 0.75325 -0.176
0.53131998 0.56415999 -0.18262
0.72438997 0.57573998 -0.36278
0.19836999 -0.42853001 0.17315
0.31851 0.67254001 0.16112
0.17674001 0.70753998 -0.17133
0.25522 0.71718001 0.10231
0.47268 -0.93472999 0.19897
0.053819999 0.80361998 0.39065
0.75722998 0.82222998 -0.40504
0.65562999 0.38260001 -0.11344
0.15159 0.50181001 -0.16019
-0.13644999 0.86311001 -0.02805
-0.22223 -0.10831 0.0075699999
0.43097001 -0.5467 0.24759001
-0.018440001 0.36188 0.49904001
-0.070600003 0.80080998 0.39978999
0.11683 0.62004 -0.37944001
-0.2999 0.97342998 -0.38563001
-0.02496 0.41266999 -0.43805
-0.29326001 0.59094 -0.1543
-0.52354997 0.54716003 -0.29124001
0.40156999 -0.41776001 0.18814
-0.53877997 -0.65438002 0.15332
0.80467999 0.6099 -0.30616
0.36616001 -0.59740001 0.04205
-0.079659998 0.15158001 -0.11032
-0.53653002 0.58142 -0.15273
0.53297001 0.59644997 -0.12441
-0.097790003 -0.085709997 0.38688001
-0.36748001 0.6494 0.20699
-0.70403999 0.70696998 -0.60597003
0.79137999 0.47953999 -0.17495
0.12132 0.87020999 0.13065
-0.18481 -0.10471 0.35508999
-0.52819002 0.58399999 -0.19434001
-0.25917 0.92689002 -0.32348999
-0.14074001 0.15441 -0.084720001
-0.01582 0.40035999 0.50714999
0.50865 0.32688999 0.034299999
-0.074349999 0.43051001 -0.39542001
-0.18001001 0.84130001 0.066349998
-0.69648999 -0.97672999 0.06256
0.17992 0.32045001 0.43456
0.76252002 0.71047997 -0.51019001
-0.34064001 0.49316999 0.34075999
-0.23982 0.17687 0.0059600002
-0.65930998 0.40346 -0.16593
-0.0136 -0.18655001 0.17308
-0.49423999 0.50589001 0.11235
-0.68835998 0.72645998 -0.67302001
0.70033002 0.86464 -0.49897
0.19126 -0.77340001 0.33555001
0.30956 0.65935999 0.23588
0.17470001 0.68317997 -0.21533
0.02063 -0.01394 0.40968999
0.047729999 0.062089998 0.41973999
0.2299 -0.91992003 0.18249001
-0.00063000002 0.89552999 0.22133
-0.25725999 0.73952001 -0.038169999
0.69568002 0.79698998 -0.57534999
0.22822 0.74311 0.063320003
0.083580002 0.184 0.44238001
0.42914 -0.68712002 0.22992
-0.67113 0.69690001 -0.71657997
0.23215 -0.98321998 0.25369999
-0.053769998 0.82999003 -0.28305
0.31048 -0.14148 0.30544001
-0.30576 -0.77340001 0.227
0.2455 0.92303997 -0.31130001
0.47837999 -0.92243999 0.15547
-0.52490997 -0.75705999 0.24393
-0.38613001 0.62966001 0.14405
0.37871 -0.85898 0.24567001
0.34428999 -0.88589001 0.096639998
0.23356999 0.83115 -0.26242
-0.36983001 -0.19385999 -0.01661
0.36151001 -0.72671002 0.12932999
0.12465 -0.30697 0.13094001
-0.43845999 -0.64305001 0.04084
0.06222 0.53059 -0.55743003
-0.29466999 -0.52181 0.15557
-0.45524001 -0.25145999 -0.01939
0.60500002 0.37145999 -0.19313
-0.68998998 0.81871003 -0.56203002
0.50476003 0.31804001 -0.00697
0.043979999 0.33581001 0.49787
-0.61541998 -0.94029999 -0.035349999
0.00060000003 0.80408001 -0.30636999
-0.078819998 -0.31468999 0.60202003
-0.55743003 -0.98970002 -0.11764
0.083580002 0.2617 0.43553999
-0.28532001 -0.42921999 0.15917
-0.82280999 0.57274002 -0.56040001
0.16566999 0.34878999 -0.17866001
-0.084810004 0.19005001 -0.11873
0.20608 -0.81874001 0.35203999
0.021509999 0.83191001 0.36532
0.15268999 0.13451 0.38485
0.76659 0.73341 -0.48666999
-0.49471 -0.1953 0.063040003
-0.44475999 -0.10157 0.15898
-0.70011002 0.79403001 -0.53152001
0.82190001 0.70078999 -0.35677001
-0.18928 0.35600001 0.47095001
-0.72162998 0.61237001 -0.61695999
0.42256999 -0.92679 0.10172
-0.061560001 0.20810001 0.43656999
0.35584 -0.61527002 0.046039999
-0.48846 -0.87278003 0.05892
0.19952001 0.72921002 0.37944001
-0.67557001 -0.98245001 -0.0287
-0.31661001 -0.44339001 0.16055
-0.17147 0.01361 -0.01272
-0.16062 0.90512002 -0.40073001
0.11759 0.87300003 0.18442
-0.22821 0.21298 0.33276999
0.018890001 -0.15263 -0.0077200001
0.10853 0.86970001 0.19866
0.43228999 0.39814001 -0.10587
0.01545 0.43948999 -0.23492
-9.9999997e-05 0.35878 0.47204
-0.15785 0.71639001 -0.31812999
0.29504001 0.98421001 -0.34232
0.14591999 0.61360002 -0.18914001
0.17037 -0.68869001 0.28018999
-0.04476 0.89178002 0.24269
0.77399999 0.57796001 -0.34208
-0.23176999 0.17309 0.32901001
0.43902999 -0.94696999 0.091109999
0.71482998 0.86607999 -0.46851999
0.12158 0.61299998 -0.35556999
0.52253002 0.43380001 -0.16972999
0.18075 0.63783997 -0.22008
0.31242001 -0.3734 0.28126001
0.66079003 0.63783997 -0.31327999
0.40096 -0.40501001 0.19986001
0.24443001 0.16434 0.19904999
-0.83715999 0.51190001 -0.28336999
0.70191997 0.41152 -0.10006
-0.73615998 -0.97964001 0.043499999
-0.26589999 0.7658 0.11744
0.23871 0.23146001 0.31621999
0.24794 0.71718001 0.065310001
0.15593 0.74677998 -0.090620004
-0.092119999 0.89401001 -0.033720002
0.16828001 0.87064999 -0.38808
-0.45484999 -0.22714999 -0.00538
0.17343 0.83173001 0.23421
-0.13533001 0.25762999 0.44861001
-0.20004 0.61623001 -0.24941
0.26140001 0.23139 0.25209999
0.066469997 0.87592 0.2087
-0.21161 0.67751002 -0.18918
0.34994999 -0.49790001 0.26100001
-0.26157999 -0.29222 0.0028899999
0.079219997 0.46483999 -0.49279001
0.099689998 0.61426997 -0.41582999
-0.51848 0.43946999 -0.24429999
-0.69853997 -0.92682999 0.066880003
0.14287999 0.80366999 -0.35258001
0.28354999 0.48921999 0.38449001
-0.36417001 -0.076279998 0.26890999
0.18327001 0.19977 0.34490001
-0.30748999 -0.17829999 -0.01315
-0.77294999 0.69466001 -0.61745
-0.67249 0.44305 -0.12724
-0.53004003 -0.85295999 0.21709
0.01466 0.84489 -0.17541
-0.079159997 -0.24583 0.42796001
-0.29732999 -0.68654001 0.1005
0.13463999 0.42269 0.48300001
-0.76459998 0.49529001 -0.72468001
0.50297999 0.33695999 0.07068
-0.0042699999 0.54688001 -0.58407998
-0.54293001 -0.65438002 0.17008001
0.16015001 -0.38234001 0.18213999
-0.28974 0.70621997 -0.034929998
-0.31163001 -0.92895001 0.31200999
-0.2651 0.18443 0.02863
0.81177002 0.71718001 -0.34887001
-0.76520997 0.67360997 -0.38668999
-0.00348 0.087949999 0.43241
-0.31766 -0.82448 0.23504999
0.80903 0.58683002 -0.28874001
-0.077940002 0.51499999 -0.56080002
0.12325 0.55282003 -0.19994999
-0.55111998 -0.98155999 -0.01006
-0.53799999 0.41622999 0.073399998
-0.10259 -0.23455 0.23064999
0.27483001 0.66444999 0.33416
0.33654001 -0.92510003 -0.0166
0.59454 0.47347999 0.064659998
-0.19092 0.01926 0.01124
-0.52853 -0.59771001 0.052829999
-0.55576003 -0.46735001 0.10231
-0.01446 0.35414001 -0.15448999
-0.69845003 0.70982999 -0.71166998
-0.15818 0.76819003 -0.14471
-0.099799998 0.69726998 0.46592
0.19693001 -0.96609998 0.41145
0.30465999 0.28103 0.2309
0.15322 0.47828001 -0.16522001
0.25927001 -0.18397 -0.0094299996
0.31779 0.42247 0.28933999
-0.19334 0.30912 0.44885001
0.21082 0.18959001 -0.061629999
0.21222 0.88770998 -0.30226001
0.70894003 0.40514001 -0.12632
-0.80198997 0.63214999 -0.32385999
0.51998001 0.47617999 0.11136
-0.71029001 0.52749997 -0.51288003
-0.26214999 0.97254002 -0.41406
-0.57147002 -0.93896002 0.0033499999
-0.46893001 -0.79606998 0.28288999
0.19126 0.64916998 0.42453
-0.49379 0.42473 -0.19905999
-0.18061 0.33636999 -0.20037
0.80558997 0.60811001 -0.13179
-0.49831 -0.25139001 0.01288
0.1158 0.54835999 -0.31753999
0.43496999 0.30912 0.054790001
0.31445 0.28073001 0.10043
-0.20099001 0.78820002 -0.033569999
-0.33292001 -0.48462999 0.16487999
0.27461001 -0.87625998 0.14364
-0.47424001 -0.45793 0.20998
-0.31246001 -0.91013998 0.30072999
-0.10163 0.60102999 -0.40728
0.23253 0.84355998 -0.26043001
0.072240002 0.43217999 -0.17794
0.03926 0.43752 -0.52824003
-0.29696 -0.52048999 0.16776
0.74728 0.70403999 -0.19757
-0.20286 0.65245003 -0.23536
0.16863 0.61508 -0.20724
-0.12996 -0.2757 0.20051
0.34272 -0.65758002 0.068300001
-0.062449999 0.42565 -0.40691999
-0.23553 0.23209 0.336
0.29245999 0.69474 0.26626
-0.65344 0.82485002 -0.60464001
0.36598 -0.69972003 0.10437
0.052280001 0.85347998 0.32038999
0.11386 0.80567998 0.35170001
0.31828001 0.63278002 0.23210999
-0.061620001 0.62172002 0.49154001
-0.67022002 0.39261001 -0.32604
-0.10912 -0.21479 0.27234
0.084710002 0.46781 -0.48146001
-0.058510002 -0.27124 0.56421
-0.04208 0.85699999 -0.18107
-0.66455001 0.69699001 -0.44745001
-0.48377001 -0.41997001 0.18984
0.47018999 0.36012 -0.10914
-0.56440002 -0.86910999 0.072669998
0.15087 0.56983 -0.15583999
0.16929001 0.21014 0.35628
-0.14082 0.85917997 -0.03111
0.094290003 0.82072997 -0.29387999
0.65881997 0.39644 -0.25314999
0.23093 0.96089 -0.37674999
-0.7101 0.60908002 -0.56080002
-0.65175003 -0.92926002 -0.0041399999
-0.024110001 0.68317997 -0.40377
-0.25026 0.2818 0.40623
-0.26269999 0.17143001 0.085299999
-0.38773 0.56983 0.21746001
-0.00144 0.40029001 -0.42478001
-0.041110002 0.88999999 -0.044459999
0.038229998 0.17263 0.42640001
-0.12838 -0.17209999 0.32372999
0.1963 -0.65811002 0.32387
0.45892999 0.46441001 -0.10918
0.16588999 -0.69972003 0.21516
-0.041110002 0.44062001 -0.45831999
-0.45074001 -0.85275 0.28769001
0.77165997 0.47657001 -0.080459997
-0.01987 0.19576 0.43267
-0.31672001 -0.97018999 0.32986
0.24463999 -0.97176999 0.11965
-0.28689 -0.42767999 0.17032
-0.44351 0.54624999 -0.1584
0.22023 -0.58152997 0.31072
0.77047002 0.60702997 -0.44508001
-0.69553 0.70163 -0.5837
-0.042860001 0.28670001 -0.17557
-0.26214999 0.61245 -0.1584
0.04899 0.47931999 -0.59754002
-0.77789998 0.64911997 -0.61519998
0.25927001 0.19742 0.038180001
0.66456997 0.88383001 -0.49268001
-0.03638 0.83481997 0.36375001
0.086570002 0.83004999 0.32394999
-0.69856 0.68198001 -0.27742001
-0.25224999 0.53833002 0.44547999
0.17091 0.75105 -0.27742001
-0.048319999 0.19777 0.43283999
0.37424999 0.32633001 0.1244
0.76896 0.58029002 -0.37377
0.21349999 0.31268001 -0.15623
-0.30320999 -0.81102002 0.21772
-0.73215997 0.49540001 -0.47172001
0.43615001 0.47290999 -0.096179999
-0.2375 -0.19462 0.34049001
0.11191 0.21843 0.40474999
-0.65793997 -0.97189999 0.017729999
-0.00041000001 0.56568998 -0.53351998
0.26697001 0.73237997 0.27313
-0.23647 0.79931998 0.13253
0.63883001 0.37101001 -0.14365
0.32859999 0.54666001 0.26563001
-0.033890001 -0.33081001 0.45256001
-0.30333 -0.43461999 0.13958
0.65209001 0.73843002 -0.3272
-0.52860999 -0.31845999 0.15202001
-0.03593 -0.21066 0.29944
0.23259 0.20142999 -0.026289999
0.19126 0.41018 0.45355999
0.0078699999 0.35874 -0.16439
-0.45793 -0.98176003 0.17716999
0.36928001 -0.58636999 0.039960001
-0.18216 -0.16761 0.01877
-0.52016997 -0.97975999 0.1292
0.23563001 0.51047999 0.43386
0.23195 -0.81721002 0.37932
-0.42916 -0.14429 0.045630001
0.17348 -0.92075998 0.35727
-0.17915 0.7723 -0.28777999
-0.64754999 0.37608001 -0.24342
0.52064002 0.42814001 -0.18107
-0.24240001 0.25244001 -0.13709
0.13404 0.60272002 -0.17579
0.22553 -0.90376002 0.19414
0.67483002 0.76366001 -0.37297001
0.06146 0.47914001 0.51217002
-0.30249 -0.35997 0.02201
0.75879002 0.73040998 -0.5668
-0.78876001 0.46044999 -0.2439
-0.0082 -0.19479001 0.21936999
-0.71499002 0.72488999 -0.58767003
0.02153 0.28048 0.45409
0.088590004 0.88121998 0.065260001
0.083860002 0.28184 0.46155
-0.13812999 0.56142998 -0.21808
-0.063780002 0.90034002 0.01902
-0.59836 0.44321999 -0.31817001
-0.37011999 0.33006999 -0.01099
0.65138 0.81889999 -0.3012
0.09082 0.54900998 -0.46434
-0.25369 0.55374998 0.43669999
-0.00321 -0.20501 0.10236
0.73786998 0.83618999 -0.36809999
-0.12961 0.23188999 -0.18182001
0.58385998 0.3601 0.046039999
-0.49818 0.57792002 0.025739999
-0.41518 -0.95477003 0.077820003
-0.37208 -0.98877001 0.2201
-0.37869999 -0.39359999 -0.01279
-0.50222999 0.49614999 -0.23774999
0.61633003 0.37501001 -0.14061999
-0.017039999 0.031399999 -0.080930002
0.38962999 -0.66571999 0.10004
0.16452999 0.73917001 -0.08399
-0.52261001 0.42611 0.10381
-0.51901001 -0.66241997 0.076099999
-0.20547 0.71253002 -0.14833
0.80044001 0.76253003 -0.41345
0.13496 0.48673999 0.48571
-0.4689 0.46527001 -0.19453999
-0.21288 0.70280999 -0.13164
-0.28830001 -0.36506 0.26431
-0.79650003 0.58301997 -0.40588
-0.33651999 0.61559999 -0.082400002
-0.54650998 -0.63279998 0.089359999
0.25927001 0.20619 0.080030002
0.13917001 0.60469002 -0.21506
-0.11681 0.10594 -0.079810001
-0.13129 0.13392 0.40807
-0.15039 0.85260999 0.041560002
-0.29473999 -0.71310002 0.13269
0.26298001 -0.97176999 0.062629998
-0.77789998 0.49191999 -0.59336001
0.28443 -0.87541997 0.10432
-0.34150001 0.38663 0.32095999
0.35407999 -0.84745002 0.19454999
-0.59342998 0.38633999 -0.26908001
0.087889999 0.86183 0.28200999
-0.01092 0.90421999 0.090970002
-0.44117001 -0.92466003 0.31915
-0.40709001 -0.095980003 0.2676
-0.46187001 -0.53592998 0.28812999
0.12199 0.66228998 -0.36383
-0.075010002 -0.17829999 0.38936999
-0.13778 0.79619998 -0.34788001
-0.154 0.75696999 -0.25475001
0.68338001 0.41791999 -0.26183999
0.25566 -0.48174 0.050609998
0.41784999 -0.39976001 0.01118
-0.79293001 0.53077 -0.42917001
0.41922 -0.42315999 0.00154
0.45754001 -0.32262 0.14774001
-0.40592 0.51972997 0.15443
-0.49498999 -0.75836003 0.27836999
-0.66303003 0.69973999 -0.48515999
-0.57391 -0.96723998 -0.057780001
0.040770002 0.83431 -0.16716
0.78369999 0.77952999 -0.36243999
-0.27805001 0.75698 0.17599
-0.10346 0.52449 -0.38163
-0.04518 0.79455 -0.30656001
0.31595001 0.65346998 0.04281
0.17286 -0.26728001 0.0061900001
0.28463 0.24132 0.30089
0.48971 0.53240001 -0.05635
0.30504999 0.35659 0.31104001
0.10516 0.52802002 -0.48495001
0.27495 -0.89056998 0.078299999
-0.10541 -0.19115999 0.28310001
-0.0911 -0.23876999 0.1779
-0.44338 0.36339 0.1111
-0.056460001 0.40281999 0.51143003
0.64573002 0.37200999 -0.16759001
-0.07429 -0.27226999 0.50322002
-0.1679 0.82951999 -0.055539999
-0.33281001 0.64758003 0.29014
0.066569999 0.88511002 0.0068799998
-0.80882001 0.61369997 -0.60176998
-0.47215 -0.67535001 0.29753
-0.10147 0.55772001 -0.41521001
-0.38661 -0.096689999 0.072750002
0.63262999 0.62032998 -0.28874999
0.19693001 -0.53874999 0.17032
0.18207 -0.75639999 0.31200999
-0.73741001 0.74334002 -0.46345001
0.18678001 -0.56936997 0.14309999
-0.60255003 0.63749999 -0.41793001
0.0085800001 0.025730001 0.41600001
-0.47674 0.51786 0.11379
0.44172999 -0.89093 0.17332999
0.12325 -0.1406 0.35411999
-0.53153002 0.60957003 -0.28863999
-0.026550001 -0.20720001 0.27976
-0.39164001 -0.56849998 0.01572
0.67868 0.81353003 -0.28040001
0.18849 0.82161999 0.23559999
0.27904001 0.48813 -0.12203
0.73523003 0.79227 -0.46495
0.11911 0.69599998 -0.33994001
-0.11371 0.5431 -0.43221
-0.51665002 -0.75639999 0.11931
-0.72122997 0.72285002 -0.59217
0.00997 0.42155001 -0.19417
-0.06611 -0.35369 0.6067
-0.29978001 -0.95477003 0.28367001
-0.53276998 -0.71105999 0.12575001
-0.74517 0.62975001 -0.21182001
-0.79745001 0.49191999 -0.39833999
-0.44914001 -0.88283002 0.30590001
0.12325 0.12455 -0.052379999
0.07209 0.31962001 0.48965999
-0.79193002 0.46715 -0.32451999
-0.2383 -0.26898 0.00716
0.10395 -0.12171 -0.0050599999
0.10763 0.84922999 -0.23025
0.3818 -0.87568003 0.27259001
0.27368 0.99324 -0.33669001
-0.68791997 0.66377002 -0.52130002
0.30227 0.54860002 0.34970999
-0.16917001 0.18238001 0.40797001
0.33763999 -0.74594998 0.38183001
0.22699 0.13909 0.29251999
0.30085 0.64590001 0.30412
-0.0283 0.41920999 -0.19059999
0.31731999 -0.054269999 0.13467
0.75682002 0.53237998 -0.051130001
-4.9999999e-05 0.83284998 0.36869001
-0.6875 -0.97742999 -0.077320002
-0.01613 0.19656999 -0.13085
0.7349 0.77921999 -0.25439
0.097829998 0.79207999 -0.31940001
-0.02679 -0.1953 0.23671
0.20826 -0.25764999 0.31690001
-0.3585 0.63489002 0.25119001
-0.51248002 -0.92400998 0.25696999
-0.33131 -0.88012999 0.28525999
0.23723 0.31975001 0.38315001
0.82037002 0.70030999 -0.43044999
0.4463 0.35446 -0.10147
0.46331 0.3434 -0.10549
-0.086309999 0.46144 -0.37876999
0.045480002 0.44773999 -0.29142001
-0.67052001 0.71950001 -0.69119
-0.11793 -0.03582 0.39136001
0.061480001 0.63217002 -0.44031999
-0.18529999 -0.33144999 0.20432
-0.55732 0.64077997 -0.27498001
0.30949 -0.082149997 0.062550001
0.72956002 0.74785 -0.50400001
0.42363 -0.68272001 0.28547001
-0.70394999 0.79618001 -0.58627999
-0.070840001 -0.31990999 0.48554
-0.00013 -0.30511999 0.62971997
0.63686001 0.46792999 -0.020889999
-0.13297001 0.47466001 -0.18492
-0.05333 0.68976003 0.48032999
0.65600997 0.54238999 -0.02104
0.75735003 0.64942002 -0.08467
0.27329001 0.27768001 0.31334001
0.44446 -0.354 0.17376
0.56181002 0.38178 -0.19244
0.37718001 -0.85275 0.28709
-0.071460001 0.30414999 0.4707
-0.72688001 0.64007002 -0.62632
0.2536 0.54716003 0.40413001
-0.44229999 -0.98404998 0.15526
-0.13741 0.85557002 -0.045049999
-0.38194999 -0.98128998 0.33820999
0.02282 0.84187001 -0.1584
0.42036 -0.42398 0.14563
0.45370001 0.39818999 -0.1149
-0.36689001 -0.21286 -0.023259999
0.1964 0.63783997 0.42728999
0.067110002 0.46281001 -0.57151997
-0.14201 0.82217002 -0.3721
-0.26789001 0.15586001 0.21346
0.1339 0.18504 0.4048
-0.36770001 -0.34832999 -0.025110001
-0.13962001 0.81053001 -0.30513
-0.63314003 0.53582001 -0.41332999
-0.0048400001 0.099409997 0.42535999
0.63296002 0.38168001 -0.22667
0.23886 0.50546002 -0.12999
-0.29897001 -0.36587 0.03376
-0.45544001 -0.91088003 0.0069499998
-0.20338 0.63736999 -0.24068999
0.47198999 0.33533999 -0.09584
0.77661002 0.62712002 -0.46967
0.50920999 0.53017002 -0.14704999
0.62766999 0.66051 -0.11068
-0.74242002 0.68005002 -0.66551
-0.74794 0.55848998 -0.64029002
0.65122002 0.88102001 -0.52996999
-0.72122997 0.44814 -0.43044999
0.1824 0.62361002 -0.21334
0.43358001 -0.64565003 0.15026
0.26175001 0.67465001 -0.03393
-0.69129002 0.6214 -0.75213999
-0.37193999 0.54711998 -0.098820001
0.73104 0.73262 -0.47953001
-0.19410001 -0.32139999 0.13766
0.57122999 0.60039997 -0.075669996
-0.076350003 -0.097750001 -0.034000002
0.68075001 0.76133001 -0.41032001
-0.35464999 -0.38854 -0.0097399997
0.18336999 0.80786997 0.07886
-0.34477001 -0.93101001 0.18057001
-0.64362001 -0.96666998 0.069820002
-0.57258999 -0.98347002 -0.089780003
0.50656003 0.53325999 -0.17441
-0.65899003 0.37933001 -0.21507999
-0.65628999 -0.98210001 0.092710003
-0.26427999 0.14893 0.14771
-0.52285999 -0.99432999 0.024320001
0.21141 0.64350998 -0.16407
0.43430001 -0.52139002 0.096639998
-0.038210001 -0.24631 0.36897001
-0.55023998 0.58721 -0.14514001
-0.39107001 0.41218001 -0.13672
0.46518999 -0.99418998 0.16116001
0.64622003 0.73986 -0.27733999
0.27307001 -0.63738 0.079980001
-0.19369 -0.01966 -0.00012
-0.15155999 -0.30814999 0.19019
0.65740001 0.83099997 -0.30311
0.34678 -0.27761999 0.29898
0.24233 0.02892 0.12397
0.36348 -0.98185003 -0.075599998
-0.59794998 0.41168001 -0.33263999
-0.36774001 -0.11055 0.04256
0.70301998 0.64208001 -0.37619999
0.062270001 0.88716 0.19866
0.0042300001 0.26377001 0.45273
-0.58025002 0.39554 -0.21114001
0.64595002 0.82214999 -0.30814999
-0.31882 -0.82751 0.19865
-0.50866002 0.34893 -0.12706
0.097879998 0.56553 -0.40942001
0.095909998 0.47962001 -0.50911999
-0.32409 0.63946998 -0.061689999
-0.77203 0.62667 -0.20957001
-0.0092700003 -0.17835 -0.01043
-0.34351999 -0.35196999 0.28145999
-0.43785 0.55378997 -0.14417
0.33498999 -0.41067001 -0.02238
0.27045 0.60166001 0.37819001
-0.78290999 0.69300002 -0.43612
-0.48201001 -0.75072998 0.28933999
0.090439998 0.17456999 0.44242001
-0.066289999 0.48394001 0.51608002
0.59933001 0.62746 -0.086740002
-0.16865 -0.11154 0.36273
-0.052540001 -0.43329 0.75650001
0.24890999 0.45984 -0.11262
0.0050599999 0.59197998 -0.48023
-0.22813 -0.354 0.13064
-0.36105999 -0.088150002 0.28399
-0.66284001 -0.94343001 0.14198001
-0.26346001 0.20513 0.25516999
-0.46052 0.33002999 -0.068709999
-0.40182 -0.51643002 0.01085
-0.51108998 -0.26789001 0.017480001
0.76042002 0.67216998 -0.12881
-0.63929999 0.39657 -0.33717999
0.11775 0.55282003 -0.24733
-0.13876 0.57334 -0.27871999
-0.13061 0.070210002 -0.035239998
-0.20418 0.84091002 -0.27037001
0.74870998 0.76033998 -0.53191
0.29017001 0.61036003 -0.051449999
0.036509998 -0.23977 0.46145001
-0.27285999 0.22409999 -0.0339
-0.79947001 0.64657998 -0.57564002
-0.29080999 0.020579999 0.24063
0.21841 -0.90270001 0.40841001
-0.16453999 0.83933997 -0.089440003
0.20826 0.76253003 0.32407999
-0.52780998 -0.76773 0.15339001
0.41407001 -0.91384 0.033410002
-0.072319999 -0.19358 0.30985999
-0.19645 -0.24631 0.039960001
0.66733998 0.65483999 -0.098190002
0.69769001 0.75955999 -0.42612001
0.16243 -0.36364001 0.16277
0.11936 0.84988999 -0.2208
0.41294 -0.51358002 0.1987
0.75502998 0.74552 -0.25475001
0.13783 -0.29732001 0.24188
0.10449 0.054760002 -0.017379999
-0.0276 -0.18939 0.21585
-0.046640001 0.60435998 -0.45236
0.51431 0.58086997 -0.16664
-0.091940001 0.83459997 0.34762001
0.24142 0.76345003 0.17139
0.13767 0.76819003 -0.28918999
-0.51555997 -0.87887001 0.05697
0.2383 0.47040999 -0.11005
-0.47086 -0.77302003 0.091899998
-0.32833999 -0.49101999 0.10278
0.27621999 -0.98377001 0.39967999
-0.21533 0.92668998 -0.36719
0.17068 0.78201997 -0.077660002
0.57392001 0.35166001 -0.07045
-0.20547 0.79407001 0.03638
0.16598 0.61842 -0.296
0.58462 0.57549 -0.23208
-0.21704 0.61759001 -0.22075
-0.38927001 0.61658001 0.16063
-0.01826 -0.35883999 0.52341002
-0.0030499999 0.42806 0.51034999
-0.81774002 0.55282003 -0.37377
-0.51705003 0.48499 -0.28707001
-0.57349002 -0.96658999 -0.070990004
0.31595001 -0.52969003 0.31599
0.2088 -0.79149997 0.20584001
0.16303 0.90434998 -0.25143999
0.12427 0.87933999 -0.33949
0.31274 -0.62607002 0.055599999
0.26707 -0.069370002 0.05821
0.16092999 0.12966 -0.01646
0.41321999 -0.63738 0.31022
0.18536 -0.93355 0.25841001
0.34604001 -0.32390001 0.28722
0.12928 0.85688001 0.0513
0.081940003 0.34920001 -0.18655001
0.08884 0.49689999 -0.40571001
-0.024350001 0.89859003 -0.05511
0.38565999 -0.16651 0.25421
0.14201 0.74399 -0.31599
-0.40561 -0.74326998 0.065480001
0.13345 0.10643 0.40423
0.34251001 -0.95863003 -0.051600002
0.62421 0.54601002 -0.28459999
-0.29488 0.02743 0.19697
-0.12639 0.36625001 -0.19512001
-0.058120001 0.45085001 -0.48712999
0.14621 -0.30432001 0.25272
-0.16477001 0.85585999 0.065810002
0.25156999 0.1219 0.17239
-0.65188998 0.68488997 -0.39618
-0.35282999 -0.41795 0.22787
0.24432001 0.66685998 0.36895999
-0.81985003 0.58569998 -0.33941999
-0.12068 0.87567002 0.060839999
-0.055020001 -0.24098 0.38356
0.23706999 0.21331 -0.022390001
-0.30124 0.21887 0.067060001
0.25656 0.73079997 0.12692
0.17573 0.77266002 -0.22954001
-0.63316 0.38280001 -0.073899999
0.68888003 0.78522998 -0.56858999
-0.37243 0.41266 0.23139
-0.16664 0.15715 0.40279001
0.27000999 -0.041779999 0.22972
0.31494001 0.67681998 0.19299001
-0.43397999 -0.33597001 0.25314999
0.25746 0.30708 0.36179999
0.30022001 0.68039 0.23040999
0.081880003 0.81953001 -0.17754
0.041960001 0.45133001 -0.3274
-0.1487 -0.16728 0.33072001
-0.43217999 -0.52320999 -0.0061699999
-0.30807 0.0049200002 0.10798
-0.15797 0.65900999 -0.33601001
0.33862001 0.50349998 -0.073569998
-0.29445001 0.60106999 0.37871999
0.19903 0.80133998 0.24473
0.31163999 -0.79606998 0.17646
-0.092119999 -0.093290001 0.38385999
0.78896999 0.53582001 -0.308
-0.69572002 -0.97285002 0.04851
-0.29683 0.69533998 0.060520001
-0.039099999 0.58116001 -0.4614
-0.52456999 0.58692998 -0.14685
-0.55686998 0.63836002 -0.26041999
0.56774998 0.3351 0.02637
-0.33734 0.67765999 0.02712
-0.43217999 -0.28599 -0.03153
0.30403 -0.59204 0.042550001
0.28259 -0.73245001 0.13623001
-0.31316 -0.59245998 0.042569999
-0.16216999 0.50904 -0.17501999
-0.035429999 -0.27320001 0.59522003
0.30091 0.42616999 -0.092200004
-0.37549999 0.61813998 0.0513
-0.21433 0.70159 -0.12151
-0.62829 0.53346002 -0.06205
-0.081220001 0.48021999 -0.24909
-0.095380001 -0.14365999 0.35863999
0.26072001 -0.38949999 -0.0044200001
0.23806 -0.21376 0.33287001
-0.80057001 0.63783997 -0.43582001
0.10754 0.64222002 0.47472
-0.75347 0.50329 -0.68401003
0.34413001 -0.97741997 -0.00019999999
0.09516 0.18531001 0.43669
-0.65333003 0.56532001 -0.11373
0.34875 -0.98367 0.20076001
0.22815 0.68884999 -0.050030001
-0.69158 0.66468 -0.24416
-0.66404998 -0.94852 0.13158999
-0.39118999 0.57292002 0.18731999
0.44104999 -0.20873 0.12487
-0.11114 0.52449 -0.36936
0.39497 -0.50801003 0.25042999
-0.53825003 -0.95280999 0.23266
0.34347001 0.63015002 0.15701
-0.55975002 -0.43948999 0.00746
-0.61774999 0.56278002 -0.095339999
-0.32431 -0.43509999 0.19599999
-0.082390003 -0.28955001 0.47731
0.29503 0.54031003 -0.10699
0.16432001 0.58173001 -0.27175999
0.08478 0.87765002 0.19866
0.37751001 -0.69643003 0.11281
0.22661 0.05407 0.26666999
0.0099299997 0.90276998 0.079599999
-0.55847001 0.59184003 -0.11822
-0.65941 -0.97438997 -0.0757
-0.27950001 -0.67725998 0.17011
0.11043 0.074050002 0.41258001
0.72488999 0.80221999 -0.45480001
0.032570001 0.025730001 -0.078560002
0.37487999 -0.85014999 0.23804
-0.048360001 0.75344998 0.44846001
-0.35780999 -0.98468 0.18318
0.27109 0.35815001 0.37384
-0.34103999 0.66981 -0.027170001
0.32745001 -0.98588002 0.34035
-0.71995002 0.63397002 -0.60048002
0.44227001 0.5607 0.0012300001
0.63334 0.53582001 -0.022129999
-0.81417 0.48614001 -0.23242
-0.80128002 0.49048001 -0.58582002
-0.069370002 0.59241003 -0.42500001
-0.29291001 -0.63805997 0.21116
0.69568002 0.53814 -0.36375999
0.053619999 -0.068999998 0.38698
-0.093089998 -0.11058 0.37619999
-0.17381001 -0.04228 0.35712001
-0.81923002 0.62873 -0.5438
0.065389998 0.18207 -0.11009
0.13156 0.58116001 -0.24342
-0.018440001 0.40261999 -0.37944001
-0.0071100001 0.35446 0.46575001
-0.17256001 0.83704001 -0.01668
-0.32949999 -0.42181 0.22066
0.28771001 0.2773 0.02196
-0.071450002 0.35446 0.49904001
-0.27349001 0.49614999 0.43291
0.29356 -0.86699998 0.12469
-0.19430999 -0.29165 0.27234
0.41229999 -0.41043001 0.17599
0.72477001 0.74637997 -0.47698
-0.21965 0.53852999 0.46825001
-0.75735003 0.48480999 -0.43577
-0.43785 -0.72246999 0.066670001
0.25336999 -0.037390001 0.056109998
0.27899 -0.044750001 0.2097
-0.077830002 -0.21336 0.12159
0.26028001 -0.98061001 0.073179998
-0.079630002 -0.30001 0.51512003
0.67864001 0.66614002 -0.10811
-0.22927 0.99796999 -0.37017
-0.15493 0.80220002 -0.29605001
0.077909999 0.043140002 0.41589999
0.40948001 -0.42017001 0.16648
0.14317 -0.11882 0.35304001
0.78746998 0.76253003 -0.32104999
0.10271 0.80391997 0.37187001
-0.64159 0.46776 -0.38271999
0.20919 -0.27542999 -0.00679
0.30228999 -0.61554003 0.35734001
-0.55638999 -0.96259999 -0.02062
-0.10056 0.091700003 -0.081950001
0.00771 0.15471999 -0.12688001
-0.25637001 -0.21814001 0.33884001
0.15159 0.52296001 0.48918
0.67749 0.77695 -0.41036001
0.51433003 0.33274999 0.0513
-0.00026 -0.2237 0.31571001
0.15959001 0.77719998 -0.21491
0.21952 0.78324002 0.2142
-0.79642999 0.59350002 -0.63907999
-0.68913001 0.69059002 -0.40634
-0.38060999 0.54860002 0.28062999
0.36487001 -0.16923 0.28459001
-0.65347999 0.38203001 -0.20298
0.66167003 0.62637001 -0.072509997
-0.52853 0.58179998 -0.30274001
-0.051130001 0.85597003 -0.16592
-0.31957 0.70662999 0.11694
0.69865 0.70569998 -0.39078
-0.45647001 -0.20664001 0.26682001
-0.13116001 0.21242 -0.17033
-0.21403 0.70017999 -0.14985999
0.31595001 0.62361002 0.02276
-0.080789998 0.47914001 -0.29361001
-0.38334 -0.60156 0.015629999
-0.26624 0.90197998 -0.33199999
-0.82054001 0.59816003 -0.47749001
-0.33713999 0.55546999 -0.12145
0.13557 0.58815002 -0.24909
-0.24473 0.75463998 0.037239999
0.1152 0.63783997 -0.36811
0.27597001 0.69897002 0.08591
0.16474999 0.71718001 -0.10173
0.83749002 0.64230001 -0.40114
-0.30265 0.22271 0.1171
0.70469999 0.85320997 -0.32275999
0.10047 -0.26646 0.12145
0.70301998 0.77798998 -0.57086998
-0.11629 0.096610002 -0.066830002
-0.31125 0.63029999 0.33467999
0.41587999 -0.54145002 0.02289
-0.25213999 0.69472998 -0.07175
-0.53986001 -0.97744 0.22927
-0.25740999 0.089340001 0.09522
-0.59931999 -0.90191001 0.0066999998
-0.11848 0.70049 0.45822001
0.31028 -0.12235 0.02863
-0.09685 0.66618001 -0.44181001
-0.13744 -0.053610001 0.37733001
0.12148 0.20533 0.39936
0.37654001 -0.30691001 -0.025389999
-0.65872997 0.38841999 -0.30903
-0.15922999 -0.071560003 -0.0071999999
0.74414003 0.80638999 -0.43612
0.15456 0.74752998 -0.22372
0.16651 -0.70538998 0.23266
0.11168 0.75983 -0.33739001
-0.25141001 0.054669999 0.093910001
-0.16553999 0.75795001 -0.11636
0.48208001 -0.99392998 -0.038369998
0.43419999 -0.42185 0.032090001
-0.24912 0.3504 -0.1787
-0.38918999 -0.36533001 0.26321
-0.30342999 0.73258001 0.17646
0.11158 0.093759999 -0.050719999
-0.31630999 -0.31569001 0.30735999
0.75770998 0.44738001 -0.17020001
-0.67448997 0.70583999 -0.45513999
-0.047139999 0.14718001 0.44475001
-0.52240002 -0.58621001 0.26225001
0.066569999 0.55622 -0.46664
-0.02581 0.52454001 0.51968998
0.45084 0.52502 -0.07722
0.45620999 -0.26258001 0.11364
0.34994999 -0.57284999 0.34035
-0.59399998 -0.89300001 0.084820002
-0.44867 -0.88300002 0.064920001
-0.73588002 0.44584 -0.18065999
-0.67786002 0.38279 -0.22508
-0.41912001 -0.63738 0.034299999
-0.32881001 0.27225 0.26782
0.1927 0.20778 -0.10941
0.15121999 0.61224002 -0.17219
-0.02743 -0.35257 0.49572
0.40911001 -0.96822 0.0074300002
0.32426 -0.39899999 -0.02695
0.67927003 0.84306997 -0.40033001
-0.30368 -0.97709 0.28933999
-0.31007001 0.52410001 -0.1584
-0.01299 0.53455001 -0.59426999
0.52565002 0.51344001 -0.20133001
-0.06329 -0.0069499998 -0.071110003
0.21258999 -0.39956 0.24263
0.39313 -0.81291002 0.26100001
-0.30182001 -0.40169999 0.068300001
0.36149999 -0.94821 -0.067720003
-0.076719999 0.47128001 -0.45627999
0.39054 -0.39482999 -0.01485
0.77433997 0.71718001 -0.26741999
-0.33265001 -0.46347001 0.076789998
-0.36423999 -0.48638999 0.22048999
0.30461001 -0.49158999 0.26751
-0.070380002 0.81660998 -0.30724999
-0.26646999 0.18504 0.056310002
-0.41518 -0.69972003 0.30443999
-0.17196 0.83574998 -0.076800004
-0.28047001 0.27715999 0.36895001
-0.33713999 -0.40445 0.024350001
0.044629999 0.16129 -0.11866
-0.19441 0.72578001 0.39351001
0.71024001 0.77952999 -0.57191998
-0.71704 0.62133002 -0.17043
-0.18279999 0.84601003 0.084190004
-0.60218 0.57924998 -0.11081
-0.81190997 0.63133001 -0.30785999
0.15729 -0.18307 0.33829001
-0.25729001 0.74725002 0.058600001
0.15121 0.82501 -0.02713
0.10509 -0.12736 0.35677999
0.0061400002 0.18466 -0.12914
-0.41316 -0.98220003 0.28325
-0.46757001 -0.79566002 0.091899998
-0.049539998 0.1973 -0.11927
-0.70422 0.42774001 -0.16974001
-0.047850002 0.42054 -0.18638
0.63758999 0.70305997 -0.28062999
-0.36524001 0.37918001 0.22287001
-0.31647 -0.62840003 0.25237
0.72741997 0.71512997 -0.22558001
0.27235001 0.68624002 0.01729
0.71871001 0.85949999 -0.42732
-0.51301003 0.3628 0.071819998
0.30542001 0.25108001 0.24492
-0.19555999 0.59176999 0.46529001
-0.32449001 -0.74963999 0.11104
-0.26536 0.72393 -0.068300001
-0.58538002 0.47696 0.02242
0.70134997 0.80220002 -0.26532
-0.59367001 0.66618001 -0.36243999
-0.51751 -0.92246002 -0.044939999
-0.041110002 0.45127001 -0.47560999
0.15631001 -0.32069001 0.060029998
-0.38859999 0.58522999 -0.043140002
0.077320002 0.50006002 -0.58433998
-0.31555 0.25481999 0.01122
-0.048810001 -0.20175999 0.28442001
-0.00144 0.48686001 -0.62314999
0.44279 -0.51801997 0.02812
-0.03115 -0.24775 0.35734999
-0.28354001 -0.62037998 0.085150003
0.11747 0.7852 -0.10178
0.10623 -0.22265001 0.049290001
0.16992 0.79641998 0.047400001
-0.70396 0.64780998 -0.215
0.094910003 0.22409999 0.40990999
0.18129 -0.90586001 0.36869001
0.0042300001 -0.20507 0.25924999
0.43588999 -0.51635998 0.075960003
0.038040001 0.12842 0.43595999
0.39998999 -0.88325 0.24329001
-0.14668 -0.28599 0.16349
-0.23773 -0.053610001 0.33401999
-0.46932 -0.91812003 -0.01392
0.73474002 0.57911003 -0.36883
-0.19292 0.35890999 -0.19889
-0.51283002 -0.30298999 0.01155
-0.55182999 -0.54065001 0.1591
-0.56265002 0.40281999 -0.21912
-0.47042999 -0.98659998 0.082479998
0.28235999 0.24062 0.22529
0.67316002 0.76984 -0.36739999
-0.31522 0.33589 0.33407
0.38973001 -0.99233001 0.11375
0.46054 -0.93329 0.00029
0.69920999 0.87685001 -0.48225999
-0.069600001 0.69976002 0.46981001
-0.14033 0.58288002 -0.24247999
-0.034880001 -0.35857001 0.52184999
-0.15260001 0.76337999 -0.16889
-0.46891999 -0.81590998 0.11179
-0.30182001 0.66051 0.31944001
-0.52855998 0.34772 0.0076000001
-0.15489 0.77345997 -0.13573
-0.34716001 0.67058003 0.01271
-0.55333 -0.58069998 0.19032
-0.32122999 0.26671001 0.21098
0.24549 -0.35635999 0.287
0.74013001 0.69643003 -0.46590999
0.38635001 -0.96125001 0.028890001
0.066519998 -0.23931 0.24072
-0.46934 -0.59443003 0.01559
-0.44038999 -0.56199002 0.29598001
0.20271 0.22823 -0.1162
-0.41599 0.54197001 0.12898999
-0.22517 0.062180001 0.059390001
0.32161999 0.31310999 -0.00538
-0.64295 0.44251001 -0.067639999
0.25049999 -0.98918998 0.15673
-0.19952001 0.91443998 -0.39078
-0.40419 -0.98741001 0.18416999
0.53698999 0.60628998 -0.13378
-0.25139001 0.99954998 -0.38031
-0.48819 -0.89902002 0.27963001
-0.57387 0.39412999 -0.24683
-0.10264 -0.20016 0.27680999
-0.53878999 0.35258001 -0.14602999
0.26383001 -0.0044300002 0.2211
-0.1029 0.86781001 -0.11118
-0.0093400003 0.55015999 -0.56690001
0.089570001 -0.20701 0.30895999
0.56024998 0.38398999 -0.20032001
0.13118 0.57388997 0.48252001
-0.18054999 -0.0054299999 -0.01113
0.28817001 0.26944 0.28525999
-0.22635999 0.95911002 -0.40926
-0.7802 0.4562 -0.19674
0.51507002 0.44857001 -0.16974001
-0.56123 -0.48131001 0.10798
0.34398001 0.62974 0.13573
0.71963 0.77184999 -0.56167001
-0.36221001 -0.72210997 0.29475001
0.20434 -0.08845 0.33333001
-0.55440998 -0.4585 0.01343
-0.094499998 0.50217998 -0.53021997
-0.38683999 -0.66312999 0.034299999
-0.32819 0.26247001 0.053580001
0.017410001 -0.049320001 -0.05559
0.17992 -0.98536003 0.31158999
-0.71591997 0.59202999 -0.70793998
-0.061439998 -0.24067999 0.48350999
0.79790998 0.64579999 -0.24279
0.32657 -0.96609998 0.34562999
0.79773998 0.64056998 -0.48146001
0.060430001 0.46781 -0.58431
0.34314999 0.48776999 0.24967
-0.00156 -0.23534 0.50401002
-0.52100998 -0.40501001 0.14466
0.26414999 -0.37027001 0.28202999
-0.57196999 0.3642 -0.06205
0.05675 -0.01026 -0.05466
0.080470003 -0.10152 0.36578
0.39704001 -0.17016999 0.057379998
-0.43691999 -0.47868001 -0.0052999998
-0.45453 -0.79500002 0.096790001
0.2289 0.12935001 0.13079999
-0.27041 0.1901 -0.0076700002
0.02727 0.40456 -0.3854
0.41938999 -0.43302 -0.0088200001
-0.52552003 -0.88856 0.041990001
-0.32111001 -0.84140998 0.22684
-0.53472 0.60833001 -0.30377999
0.095229998 0.63053 -0.43768001
-0.37465 -0.53829998 0.01969
0.55830997 0.57392001 -0.056529999
0.43618 -0.99447 0.20958
-0.14228 -0.03661 0.38003999
-0.53249002 0.42324001 -0.2304
-0.35613999 -0.044769999 0.15332
0.019619999 0.89752001 -0.097180001
-0.77313 0.48995 -0.50621998
-0.48319 0.34163001 0.058329999
0.43026 -0.67137998 0.27033001
0.47286999 -0.91869003 0.13863
-0.54196 0.55695999 0.016519999
-0.31474 0.69963002 -0.03238
-0.096790001 -0.07722 -0.026000001
-0.15881 -0.14429 0.34426999
-0.44351 -0.26273999 -0.025760001
-0.19311 0.70012999 -0.22075
-0.073430002 0.90583003 0.17418
-0.59704 0.62493998 -0.1749
0.20439 -0.44569999 0.13411
0.34240001 0.61821002 0.045430001
0.24794 -0.60904002 0.075599998
0.24422 0.76299 0.22217999
-0.52111 -0.57523 0.021190001
0.13218001 0.85887003 0.16464999
0.82222998 0.69780999 -0.46443999
0.4199 -0.52433997 0.22060999
-0.45085999 -0.13937999 0.072010003
-0.72938001 0.71780002 -0.60898
-0.71648997 0.40439001 -0.22262999
-0.46179 -0.36471999 0.22413
0.3831 -0.97573 -0.056000002
-0.64556003 0.41062 -0.046209998
0.02087 -0.29866999 0.41725999
-0.58473998 0.43272001 0.023
0.36004001 -0.09742 0.21675999
-0.27855 -0.42964 0.15051
0.23402999 -0.98018998 0.41855001
0.33295 -0.34867001 0.27281001
0.17515001 -0.35543999 0.24501
0.44334 -0.98629999 -0.01541
-0.065880001 0.89687002 0.059020001
0.26383001 0.21397001 0.061409999
-0.69916999 0.43858999 -0.15475
0.21037 0.75749999 0.0068100002
0.25037 -0.85709 0.19760001
-0.61645001 0.36464 -0.082259998
0.63072997 0.55914003 -0.28810999
0.36542001 0.35935 0.17749999
-0.53911 -0.67302001 0.094999999
-0.68365002 0.68674999 -0.28325999
0.47639 -0.98409998 0.01729
-0.35888001 -0.03661 0.18825001
-0.036010001 -0.13722999 0.41402
-0.53623003 -0.89622998 0.03836
-0.42084 0.35505 0.11931
-0.071630001 0.64078999 -0.45638001
-0.50237 0.53779 -0.20219
-0.35694 0.53438997 -0.11069
-0.67278999 0.79016 -0.59575999
-0.35282999 0.62263 0.26706001
0.29686999 -0.96823001 0.029510001
0.65140003 0.77575999 -0.35181001
0.14025 0.50506002 0.49021
0.60364002 0.46781 0.04445
0.23873 0.17227 0.26236999
-0.46618 0.55105001 0.09138
0.12069 0.56983 -0.27175999
-0.55054998 0.38229001 0.03221
0.31252 0.64214998 0.23658
0.18763 -0.72806001 0.32240999
0.23093 0.16412 0.073969997
0.47962999 -0.95622998 -0.01633
0.25290999 0.63217002 -0.039379999
-0.81849003 0.50103998 -0.57422
-0.47547001 -0.58636999 0.29673001
0.35846999 -0.97937 -0.04806
-0.78272003 0.67939001 -0.41582
0.24157 0.33675 0.38767999
-0.22431999 0.16881999 0.35166001
-0.1708 0.30752 -0.19797
-0.082800001 0.40781999 -0.16328999
-0.65881997 0.46849999 -0.42462
-0.77067 0.48977 -0.71267998
-0.55945998 -0.53535998 0.068300001
-0.56983 0.37145999 -0.16861001
0.50297999 0.51625001 0.10582
-0.12453 -0.17005999 0.33467999
-0.43755999 -0.98255998 0.03035
-0.25404 0.60061002 0.41765001
0.36846 -0.61607999 0.04448
-0.59135002 -0.98057997 0.13242
0.34674999 -0.75927001 0.37695
-0.0068399999 0.42383 -0.31704
-0.080679998 -0.30574 0.49654999
-0.17607 -0.30978999 0.14855
0.40145001 -0.40594 -0.00142
-0.6419 -0.94911999 0.032299999
-0.05336 0.84754002 0.33425
-0.31959 -0.49726 0.12540001
-0.18206 0.45285001 -0.1605
-0.41589001 -0.4553 -0.0028599999
-0.65319997 0.39142001 -0.18107
0.52029997 -0.99484003 0.09516
-0.55624998 -0.58600003 0.11464
0.78056997 0.78290999 -0.33397999
0.11156 0.34443 0.47837999
0.52136999 0.42304 -0.19296999
-0.31316 -0.50484997 0.11364
-0.45671001 -0.29053 0.25534001
0.40096 -0.98550999 0.27048001
0.17597 0.63036001 0.44624001
0.08326 0.48497999 -0.57213998
0.67251998 0.86142999 -0.45451
-0.34976 -0.96609998 0.34424001
-0.25341001 0.44828001 0.45353001
0.25027999 -0.094679996 0.029990001
0.54832 0.57880002 -0.090389997
0.14895 0.88669002 -0.24189
-0.53482997 -0.74039 0.1997
0.20275 -0.43814 0.11143
0.63892001 0.81281 -0.33001
-0.41705 0.31992 0.00029
-0.1153 0.53123999 -0.32916999
0.32064 0.55992001 0.31231001
-0.15894 -0.12805 0.35721001
0.50695002 0.51379001 -0.16103999
-0.08309 0.85083002 -0.21789999
-0.29616001 -0.52951998 0.17599
0.066569999 0.87813997 -0.050719999
-0.31428 -0.65438002 0.064850003
0.24794 0.20142999 0.020919999
-0.50576001 0.58907002 -0.11891
0.37242001 -0.62532002 0.056759998
-0.1488 0.85781002 -0.00052
0.12514 0.84341002 0.28644001
0.71305001 0.43265 -0.083209999
0.13170999 0.1997 0.38909999
-0.69856 0.69621003 -0.37377
-0.14920001 0.87876999 0.10741
-0.01991 -0.30566999 0.66907001
-0.17455 0.88554001 -0.35321999
0.21618 0.75119001 -0.040350001
-0.37829 -0.75928003 0.30247
0.12781 0.86594999 0.17906
-0.063780002 0.64726001 -0.45603999
0.34094 -0.64679003 0.056090001
-0.61691999 0.50748003 -0.38510999
0.19133 -0.31549001 0.0080199996
-0.82362002 0.56225002 -0.35677001
-0.62488002 -0.90376002 0.094549999
-0.71386999 0.49048001 -0.45728999
-0.39695999 -0.87177002 0.11364
0.34707001 0.62083 0.091930002
0.18431 0.93057001 -0.36669999
-0.39251 0.57549 0.14771999
-0.71556002 0.3998 -0.28273001
-0.51604998 0.57305998 -0.29104
-0.028410001 0.83771002 0.35734999
0.26945999 -0.20641001 -0.018719999
-0.24171001 0.12208 0.083829999
0.25672001 0.59913999 0.39388999
-0.11136 0.87269002 0.25659999
-0.31316 -0.57503003 0.04417
0.24412 0.84919 -0.27002999
0.16315 -0.12782 0.34669
0.38466001 -0.80550998 0.22133
-0.22822 0.62559998 0.43173999
-0.37035999 -0.82449001 0.12355
0.58964002 0.44916001 -0.28297001
0.23093 -0.29616001 -0.01609
-0.095310003 -0.12359 -0.0090699997
-0.16767 0.66902 -0.31606001
0.041329999 0.83148003 0.35883
0.22830001 0.92875999 -0.26809999
0.13316 0.60219997 -0.18838
0.80318999 0.60974002 -0.40781
0.33668 -0.76925999 0.15332
0.25260001 0.60382998 -0.14139999
0.64493001 0.78667998 -0.31233999
0.75929999 0.61487001 -0.44911999
0.32728001 -0.58344001 0.032900002
-0.041779999 -0.21353 0.052730002
-0.40764001 -0.23431 0.30241999
0.78264999 0.49372 -0.25123999
0.32481 -0.12977 0.28957999
0.42363 -0.96219999 0.24646001
-0.22814 0.67114002 0.39144
0.14025 0.44944999 0.4887
-0.052549999 0.89697999 0.0513
-0.60795999 0.37803999 -0.12158
0.37101001 0.55734998 -0.019859999
0.19329 0.79509002 0.089330003
0.30949 0.54622 -0.074320003
0.31472 -0.84201998 0.1707
0.20826 0.67453998 0.39702001
-0.78865999 0.62272 -0.63946003
-0.42846999 -0.96362001 0.32719001
0.18085 0.78920001 -0.055520002
0.25059 0.63786 -0.02527
0.01221 0.39447001 -0.41115001
-0.29280999 0.44593 0.40795001
0.76792002 0.68709999 -0.53882003
-0.70422 0.50033998 -0.13209
-0.21681 0.47631001 -0.1701
0.36603001 -0.95767999 0.038649999
-0.55554003 -0.86088002 0.18798
0.0287 -0.15211 0.01342
0.35014001 -0.59771001 0.35064
-0.056439999 -0.33682001 0.51604003
0.11961 0.8768 -0.25330999
0.7256 0.60224998 -0.39425001
0.34393999 -0.75639999 0.14478
-0.53799999 -0.69972003 0.23615
0.23265 0.38769999 0.42116001
-0.35282999 0.50748003 0.33734
-0.05638 -0.19103999 0.00127
0.42748001 -0.51675999 0.1594
-0.061939999 0.45177001 -0.46647999
-0.03064 0.76226997 0.44238999
-0.2994 -0.59811997 0.22657999
-0.51008999 -0.36695999 0.16972999
-0.77109998 0.67184001 -0.27052
0.11706 0.46092999 -0.17470001
0.22163001 -0.62871999 0.09121
0.17407 -0.96718001 0.2904
0.038229998 -0.23676001 0.16278
-0.37593001 0.58963001 0.06016
0.0070799999 -0.33467999 0.63564998
0.28744999 0.95550001 -0.32142001
-0.35980001 -0.43037 0.20692
0.36697 -0.96935999 -0.082879998
-0.73953003 0.55194002 -0.62304002
-0.097939998 -0.03661 -0.02912
0.73438001 0.84694999 -0.41216001
0.062579997 -0.11323 0.36680001
0.14055 0.78311998 -0.29144001
0.10276 0.48949999 -0.49096999
