# .PCD v0.7 - Point Cloud Data file format
VERSION 0.7
FIELDS x y z
SIZE 4 4 4
TYPE F F F
COUNT 1 1 1
WIDTH 1470
HEIGHT 1
VIEWPOINT 0 0 0 1 0 0 0
POINTS 1470
DATA ascii
0.42029101 -0.48153201 0.148086
0.416805 -0.47785699 0.146117
0.477047 -0.49344999 0.183492
0.47141901 -0.49244899 0.178528
0.462212 -0.49308899 0.177441
0.45345801 -0.48997101 0.170269
0.44480801 -0.49068701 0.16748799
0.43814299 -0.49148899 0.165428
0.43631399 -0.49241 0.16845299
0.411558 -0.46725601 0.142499
0.41010901 -0.46675801 0.137348
0.41532701 -0.47659999 0.14819001
0.41268301 -0.47112501 0.143529
0.41197601 -0.46577901 0.144161
0.41377199 -0.464196 0.148287
0.41545299 -0.45760399 0.147829
0.417355 -0.44759601 0.14372
0.417716 -0.43762699 0.138971
0.41692701 -0.42654499 0.13445701
0.29237899 -0.397576 0.16981199
0.304548 -0.38932401 0.17869399
0.285436 -0.40374601 0.162818
0.27841601 -0.413436 0.158268
0.27055901 -0.42535901 0.155118
0.26353601 -0.43054199 0.14804401
0.25568601 -0.43924099 0.140609
0.24924999 -0.43948299 0.129697
0.241725 -0.44982201 0.124945
0.232871 -0.46342999 0.118112
0.41926399 -0.418652 0.138763
0.41485399 -0.4122 0.13362999
0.40892601 -0.392129 0.135175
0.41499099 -0.40247601 0.137605
0.40414399 -0.38759401 0.132138
0.405844 -0.381616 0.138209
0.40559 -0.37124801 0.146933
0.39703801 -0.36072099 0.149425
0.392515 -0.351217 0.15067001
0.38906401 -0.350723 0.148756
0.38265499 -0.35188299 0.145565
0.38443899 -0.34706801 0.150225
0.38814601 -0.34031901 0.156087
0.38508901 -0.33804101 0.15970901
0.37691399 -0.33636099 0.166961
0.37248001 -0.33464801 0.17306399
0.36582699 -0.339398 0.172727
0.361265 -0.340193 0.179572
0.35226101 -0.34621501 0.183624
0.34391201 -0.352846 0.17654601
0.33483601 -0.35797301 0.174024
0.32450601 -0.362986 0.16714799
0.319857 -0.36671999 0.17021701
0.315539 -0.372253 0.174463
0.3125 -0.37848499 0.178626
0.21407799 -0.62232 -0.052294001
0.215672 -0.628995 -0.059983999
0.222599 -0.62315297 -0.029591
0.218758 -0.623927 -0.041836999
0.220304 -0.63906401 -0.069851004
0.225225 -0.64671302 -0.092900001
0.22460701 -0.64728498 -0.080031998
0.226813 -0.64583898 -0.106448
0.240519 -0.66096002 -0.115615
0.245343 -0.65856099 -0.131513
0.23412301 -0.65726697 -0.104437
0.25248599 -0.65842599 -0.14532501
0.27999699 -0.66544598 -0.16990501
0.266011 -0.669052 -0.14638001
0.27543399 -0.669864 -0.157095
0.30451301 -0.63862002 -0.213781
0.294007 -0.65716398 -0.19128899
0.31127301 -0.64778 -0.20669501
0.30953801 -0.65535903 -0.200616
0.29030699 -0.66659099 -0.17712399
0.31055301 -0.62961203 -0.222222
0.31940699 -0.62105697 -0.227658
0.19934601 -0.51313001 0.058077
0.19983201 -0.517501 0.057174001
0.201368 -0.51967698 0.063258
0.20217 -0.52677798 0.063547
0.21211199 -0.55511999 0.055686999
0.216259 -0.55995703 0.045782
0.21953399 -0.56452203 0.041703001
0.223369 -0.56606501 0.033149999
0.203162 -0.529746 0.068112999
0.203623 -0.53438699 0.06735
0.205714 -0.54417503 0.065986
0.207876 -0.55213302 0.065646
0.228183 -0.57154298 0.029634999
0.232126 -0.57746601 0.030820999
0.237518 -0.58555597 0.033142999
0.238424 -0.590047 0.030377001
0.24006701 -0.60068703 0.026551001
0.237316 -0.61867797 0.00025899999
0.23253 -0.61691898 -0.0059500001
0.225684 -0.61761701 -0.017145
0.241154 -0.61042303 0.020885
0.242033 -0.61958498 0.011178
0.227768 -0.47650301 0.11797
0.223995 -0.490574 0.114807
0.219521 -0.49868 0.10374
0.21695501 -0.51128298 0.100134
0.21527299 -0.52214497 0.096911997
0.212327 -0.53426099 0.087830998
0.207462 -0.53083003 0.078153998
0.20218401 -0.51782298 0.066160001
0.20451599 -0.53027898 0.072446004
0.344381 -0.59387898 -0.241083
0.346632 -0.57971603 -0.253052
0.32860899 -0.60047001 -0.235864
0.340083 -0.60235101 -0.234212
0.34924299 -0.56887901 -0.26173401
0.348537 -0.56405801 -0.26648501
0.34286401 -0.55963802 -0.27103001
0.33656901 -0.555287 -0.27647799
0.33327401 -0.552912 -0.28131601
0.332012 -0.55205399 -0.284228
0.33317 -0.55315799 -0.286715
0.32255 -0.61019599 -0.232401
0.32914001 -0.55351901 -0.294559
0.32550299 -0.55545199 -0.30633
0.31365401 -0.54857802 -0.311836
0.307915 -0.54114699 -0.304885
0.298287 -0.535267 -0.31071699
0.28544101 -0.51777899 -0.30096301
0.28543001 -0.51549 -0.29784101
0.29275599 -0.53283101 -0.31388801
0.287738 -0.52599001 -0.307906
0.28413999 -0.51598698 -0.29971701
0.27112401 -0.50946999 -0.293134
0.28186199 -0.51883602 -0.30366901
0.275713 -0.51487303 -0.30086601
0.26634401 -0.507658 -0.29135501
0.30399501 -0.46927401 -0.34478199
0.30930099 -0.46729901 -0.34959301
0.31227499 -0.46484199 -0.349433
0.31811899 -0.46325701 -0.352862
0.261141 -0.508403 -0.29385
0.243516 -0.508708 -0.29932201
0.245708 -0.50959599 -0.29825199
0.25412101 -0.51070499 -0.297488
0.248394 -0.51044601 -0.29803699
0.23823901 -0.51121598 -0.302753
0.234218 -0.50214899 -0.32176599
0.23964199 -0.49832001 -0.325993
0.24571601 -0.49415001 -0.32690501
0.25104699 -0.49139801 -0.33047599
0.228891 -0.50663197 -0.316208
0.22827999 -0.50753599 -0.317532
0.230977 -0.50651002 -0.32188499
0.25491199 -0.48954099 -0.33365601
0.26029399 -0.48692101 -0.33571199
0.25841501 -0.48858601 -0.336593
0.230257 -0.51113403 -0.30697301
0.228089 -0.51072598 -0.30855501
0.22645301 -0.51090503 -0.309791
0.225609 -0.51124901 -0.31066099
0.226466 -0.509233 -0.31176099
0.225657 -0.509983 -0.312778
0.225927 -0.509646 -0.31437701
0.263372 -0.48675099 -0.33848199
0.26526299 -0.48731601 -0.34024
0.271211 -0.48250201 -0.33826801
0.27385801 -0.48024899 -0.337226
0.276595 -0.47981799 -0.33928701
0.28472999 -0.47828099 -0.33980599
0.29438701 -0.47618499 -0.34214801
0.29013601 -0.477586 -0.34094
0.30095699 -0.47238901 -0.34491801
0.32500401 -0.46215299 -0.35354
0.321895 -0.46272299 -0.354182
0.427845 -0.52087599 -0.317361
0.43340999 -0.52125698 -0.316724
0.440236 -0.51675099 -0.313126
0.44508201 -0.51883698 -0.31441101
0.456312 -0.51890802 -0.31602299
0.47939301 -0.51299298 -0.30989301
0.468054 -0.520863 -0.31921801
0.47908801 -0.51764399 -0.31637901
0.486929 -0.50961202 -0.29627499
0.48367801 -0.51085699 -0.30346999
0.49004501 -0.51016903 -0.291495
0.49398699 -0.51226699 -0.283618
0.49467799 -0.513107 -0.27452499
0.48816499 -0.50946403 -0.27161101
0.32833701 -0.46380299 -0.35627699
0.33401099 -0.46600199 -0.35749799
0.339798 -0.471376 -0.35973799
0.33674899 -0.46945801 -0.36011201
0.34088299 -0.47454 -0.36078101
0.34631899 -0.48116201 -0.35882199
0.348234 -0.49068499 -0.35999599
0.356352 -0.49812201 -0.35332799
0.36000401 -0.50654602 -0.35169199
0.366833 -0.51353902 -0.34544
0.374017 -0.51479697 -0.339046
0.38079301 -0.51753199 -0.334573
0.38783899 -0.52066201 -0.33110201
0.39776 -0.52214199 -0.32747999
0.40806201 -0.52222902 -0.323823
0.41672999 -0.52207702 -0.32093599
0.41986299 -0.52324998 -0.320687
0.68004298 -0.20401201 -0.018533001
0.68114901 -0.205312 -0.01977
0.68261099 -0.20951401 -0.019168001
0.682226 -0.213431 -0.016735001
0.68477303 -0.21737701 -0.017248999
0.688685 -0.222394 -0.017484
0.69179302 -0.22912499 -0.015825
0.693627 -0.227892 -0.016787
0.69962901 -0.227686 -0.01694
0.70721501 -0.225245 -0.018111
0.71605599 -0.23079599 -0.017137
0.72324002 -0.230244 -0.021249
0.73304898 -0.23047499 -0.028175
0.74509901 -0.221524 -0.042799
0.74367702 -0.23174299 -0.035174001
0.75709999 -0.22308201 -0.047694001
0.76908797 -0.213688 -0.058460999
0.76762098 -0.224347 -0.050771002
0.77805299 -0.213843 -0.059308
0.78699398 -0.197732 -0.065572999
0.79312003 -0.186672 -0.068967
0.795389 -0.179012 -0.071332
0.78656101 -0.172796 -0.077662997
0.78492498 -0.21354701 -0.059126999
0.78955001 -0.208894 -0.060021002
0.78805 -0.159775 -0.082373999
0.79423201 -0.149299 -0.083264999
0.79797298 -0.138799 -0.085327998
0.79942501 -0.129554 -0.086543001
0.80245399 -0.116266 -0.087462001
0.82686102 0.11512 -0.135369
0.83706802 0.105904 -0.136319
0.81797099 0.125186 -0.13278601
0.813366 0.13745999 -0.128047
0.80697399 -0.037710998 -0.08969
0.808478 -0.022421001 -0.085698001
0.810449 -0.114367 -0.079542004
0.81353903 -0.106937 -0.077132002
0.80939901 -0.097889997 -0.082369
0.81008399 -0.078589 -0.080403
0.81077498 -0.087466002 -0.079663001
0.81195402 -0.070940003 -0.073677003
0.81039 -0.058233 -0.076196
0.80828798 -0.042107001 -0.079634003
0.81643802 -0.0059460001 -0.099053003
0.81993002 -0.002534 -0.103716
0.82554799 0.001075 -0.104496
0.836972 0.0084290002 -0.106252
0.831559 0.0026829999 -0.101427
0.834966 0.0050849998 -0.103359
0.83496302 0.012203 -0.110963
0.84218597 0.016580001 -0.109108
0.84129 0.025082 -0.113178
0.84903198 0.034552999 -0.111239
0.84924102 0.040704001 -0.114862
0.84972602 0.050779 -0.122597
0.80998498 -0.016402001 -0.084696002
0.81388301 -0.0090370001 -0.091532998
0.85414702 0.057964999 -0.123242
0.851448 0.070626996 -0.12903599
0.85316002 0.082716003 -0.13087399
0.846075 0.083051004 -0.135563
0.843108 0.090094998 -0.137316
0.84424001 0.099666998 -0.135759
0.80535299 0.145749 -0.126054
0.79875797 0.15501601 -0.122997
0.79854602 0.165488 -0.117441
0.78906798 0.17001399 -0.114877
0.77678603 0.17522199 -0.111736
0.771595 0.17714 -0.110346
0.76791501 0.17431401 -0.110854
0.76452398 0.175982 -0.107904
0.76148301 0.17712399 -0.104567
0.75809997 0.179864 -0.099292003
0.756051 0.17730699 -0.096887
0.75428402 0.16527499 -0.094949
0.75476402 0.174105 -0.094589002
0.491474 -0.51022798 -0.26811799
0.49865901 -0.51356202 -0.26504999
0.51194 -0.52450401 -0.26102799
0.497949 -0.51434302 -0.269391
0.50537699 -0.51984799 -0.26965299
0.52254802 -0.53195 -0.249663
0.52102298 -0.53245997 -0.25586501
0.53044701 -0.53557497 -0.24165501
0.53895497 -0.54014301 -0.23533399
0.54662001 -0.54296303 -0.228515
0.550708 -0.54247999 -0.22334699
0.55564499 -0.54716402 -0.222302
0.56006098 -0.54706901 -0.216424
0.56521702 -0.54706198 -0.21056201
0.57641298 -0.54426402 -0.19914301
0.57022601 -0.54698598 -0.20521601
0.582192 -0.53584403 -0.194287
0.58661401 -0.53253901 -0.189395
0.592426 -0.527861 -0.17906401
0.59320801 -0.53584403 -0.180885
0.59767997 -0.52763498 -0.170185
0.603504 -0.529778 -0.162738
0.60468298 -0.52832699 -0.157618
0.60886401 -0.530617 -0.14992499
0.60391301 -0.52496499 -0.14156
0.59976703 -0.52112901 -0.13002101
0.59371001 -0.51699799 -0.12143
0.59011197 -0.51686001 -0.111506
0.57962197 -0.50943202 -0.111357
0.58263302 -0.51583302 -0.099367
0.57108498 -0.50989401 -0.095733002
0.560197 -0.50639498 -0.090843
0.55159599 -0.502671 -0.088873997
0.55122602 -0.50417298 -0.083053
0.55215698 -0.50557297 -0.077800997
0.56002098 -0.51203698 -0.076231003
0.55906999 -0.50972903 -0.068046004
0.55769497 -0.50384098 -0.060699999
0.56713498 -0.50082999 -0.03878
0.568268 -0.507752 -0.048532002
0.564367 -0.49322501 -0.027581999
0.55697602 -0.484918 -0.021925
0.54803503 -0.476349 -0.019757999
0.55052102 -0.47420901 -0.010266
0.54983699 -0.46985999 -0.0055399998
0.54648501 -0.46442801 -0.006201
0.54791999 -0.46113601 -0.00042600001
0.54224902 -0.45356899 -0.0037420001
0.53660798 -0.447254 -0.0087590003
0.53574598 -0.44738901 -0.012433
0.53282702 -0.44215101 -0.011116
0.79881299 0.080066003 -0.043696001
0.80377102 0.067184001 -0.048216999
0.81030202 0.055025999 -0.052372001
0.79364598 0.099097997 -0.038802002
0.795968 0.090558998 -0.040289
0.816634 0.044702001 -0.055277999
0.81062299 0.033399001 -0.057269
0.79444402 0.021198999 -0.057199001
0.80934101 0.021464 -0.060006998
0.80375099 0.015743 -0.060118001
0.78290302 0.014745 -0.052928001
0.78972101 0.015869001 -0.055899002
0.77706701 0.0092449998 -0.047605999
0.770594 -0.010066 -0.034465998
0.77770001 -0.0030489999 -0.041446999
0.77134502 -0.020009 -0.028178999
0.76284897 -0.024233 -0.020773999
0.75851601 -0.039469998 -0.0055630002
0.75574797 -0.046440002 0.00097200001
0.74717802 -0.045506001 -0.000224
0.761733 -0.032963999 -0.012542
0.75300997 0.171168 -0.088134997
0.75220698 0.164177 -0.084821001
0.75209302 0.16433699 -0.079476997
0.75287902 0.163876 -0.073968001
0.755171 0.15953 -0.062171001
0.75747299 0.158527 -0.049818002
0.76339298 0.143399 -0.039418001
0.75938201 0.159126 -0.041894998
0.76148301 0.153567 -0.039686002
0.76591599 0.14625099 -0.036233999
0.76966 0.147045 -0.033383001
0.77317703 0.13692801 -0.033775002
0.77602297 0.126684 -0.035142001
0.77837199 0.116491 -0.037087999
0.784015 0.110565 -0.038318999
0.70999998 -0.14574599 0.037009999
0.71329302 -0.14047299 0.040566001
0.70921099 -0.154162 0.037165001
0.73715001 -0.080806002 0.021887001
0.74506301 -0.081423 0.027765
0.74199498 -0.090981998 0.033693001
0.73432899 -0.100156 0.0361
0.72898901 -0.107606 0.037154
0.72257501 -0.116902 0.036162
0.71768701 -0.127441 0.036947999
0.71724099 -0.136721 0.043639001
0.74361199 -0.054400999 0.0057259998
0.73583603 -0.072221003 0.015693
0.74339402 -0.065388002 0.013459
0.68823099 -0.235888 0.011493
0.68698901 -0.231645 0.0086869998
0.69251102 -0.232658 0.019207999
0.683644 -0.22821499 0.004152
0.68217999 -0.224876 0.001128
0.681306 -0.223424 -0.0023950001
0.68090498 -0.21969 -0.005444
0.68079501 -0.216258 -0.0098369997
0.68102902 -0.21268199 -0.014685
0.68039298 -0.20843101 -0.015361
0.679407 -0.203381 -0.017024999
0.69894803 -0.233086 0.036277998
0.69362402 -0.23856001 0.026501
0.703861 -0.220845 0.037990998
0.708188 -0.174155 0.039223999
0.710967 -0.163938 0.043880999
0.708278 -0.186627 0.045329999
0.70861697 -0.19662701 0.043878999
0.70647502 -0.20721 0.035234999
0.70911801 -0.206109 0.044371001
0.70708698 -0.215232 0.041072998
0.532547 -0.44225499 -0.0085079996
0.53661603 -0.446895 -0.0054489998
0.54211199 -0.452104 -4.4e-05
0.54416698 -0.45309299 0.005773
0.54820502 -0.45470801 0.0097650001
0.55096799 -0.453087 0.016874
0.55457997 -0.451368 0.022688
0.56357002 -0.44667301 0.042454001
0.56099498 -0.44918501 0.031711001
0.56649297 -0.445777 0.050034001
0.56512398 -0.44600499 0.0579
0.56812799 -0.44628999 0.068209998
0.57024598 -0.44740599 0.080596998
0.49341199 -0.488837 0.18998601
0.483147 -0.49402401 0.190558
0.55351901 -0.46240401 0.144237
0.54116899 -0.46627501 0.149002
0.53080702 -0.47027299 0.15453701
0.57509702 -0.447813 0.094183996
0.57857901 -0.44821101 0.106881
0.57045501 -0.45260301 0.116518
0.57204902 -0.45360801 0.131264
0.56329399 -0.45850399 0.138018
0.52358902 -0.47455299 0.16274101
0.51841801 -0.47787499 0.17354099
0.51139599 -0.481466 0.184453
0.50187498 -0.484418 0.186709
0.43279099 -0.49305201 0.170828
0.42937499 -0.493395 0.16750801
0.420587 -0.49126399 0.162622
0.42363301 -0.48770201 0.154807
0.42410201 -0.49432299 0.168304
0.42109701 -0.493121 0.165757
0.42004001 -0.48544899 0.153956
0.41800499 -0.48047599 0.149872
0.47592801 -0.49914899 0.194215
0.46763301 -0.49861601 0.188931
0.457376 -0.498831 0.18471
0.45310199 -0.49587399 0.17907
0.44836 -0.49330699 0.17391001
0.44277 -0.49290699 0.172178
0.44239801 -0.49217999 0.169966
0.43937999 -0.492342 0.171012
0.436223 -0.49235499 0.17225701
0.41294 -0.47096699 0.146384
0.415793 -0.47947699 0.15298
0.41449499 -0.47552499 0.14973199
0.413986 -0.46985099 0.151437
0.416673 -0.46601999 0.15679
0.42052299 -0.457219 0.157309
0.423673 -0.438869 0.149268
0.42373499 -0.44650301 0.153835
0.422546 -0.429602 0.144695
0.29861799 -0.398563 0.17978001
0.29214001 -0.40518001 0.17518701
0.313564 -0.38699099 0.188572
0.30767101 -0.397733 0.190264
0.28518301 -0.41651699 0.170462
0.27805501 -0.42769799 0.166767
0.27066499 -0.43767601 0.162287
0.26224899 -0.44102499 0.15294001
0.25557801 -0.45012701 0.147423
0.248211 -0.45149201 0.135526
0.240362 -0.46147901 0.12954301
0.23425999 -0.47360101 0.127388
0.426581 -0.42009801 0.149837
0.42112201 -0.40981001 0.14252
0.41710401 -0.38977599 0.145083
0.41096601 -0.38470501 0.140579
0.42204699 -0.40174001 0.146394
0.413744 -0.37757301 0.14799
0.41496399 -0.36910501 0.15508001
0.40567601 -0.36113501 0.15511701
0.40081599 -0.35435399 0.156902
0.39702699 -0.35317099 0.1542
0.39633 -0.34915599 0.155395
0.39370799 -0.34324601 0.15490501
0.38795799 -0.34772101 0.150065
0.39034101 -0.34137201 0.15489601
0.39192301 -0.33713201 0.158823
0.38942799 -0.33381599 0.162936
0.38706499 -0.32833099 0.16968501
0.38134 -0.32594901 0.17598701
0.36946699 -0.33346 0.179434
0.37722701 -0.32492799 0.181376
0.36768401 -0.332683 0.186148
0.361568 -0.33831799 0.188435
0.35324001 -0.34499699 0.194175
0.34353599 -0.35241801 0.191355
0.33722499 -0.356702 0.183349
0.32843301 -0.36177799 0.17732701
0.323782 -0.36585 0.17936701
0.32091099 -0.37033299 0.182606
0.32012099 -0.376064 0.188278
0.220782 -0.63337803 -0.047343999
0.222453 -0.64052999 -0.056802001
0.227184 -0.62875801 -0.023325
0.225492 -0.63623399 -0.034788001
0.227942 -0.65185201 -0.067570001
0.230933 -0.65666401 -0.079472996
0.233981 -0.65984499 -0.092807002
0.244239 -0.66811502 -0.10732
0.24868 -0.667467 -0.120886
0.256529 -0.66701198 -0.135763
0.241776 -0.66796201 -0.096110001
0.29188901 -0.67364401 -0.167485
0.276636 -0.676929 -0.14493699
0.26785201 -0.67659098 -0.134027
0.28666201 -0.67729503 -0.155376
0.31516501 -0.63821399 -0.214523
0.30240101 -0.66696602 -0.184586
0.30748299 -0.66138297 -0.194115
0.31844801 -0.65804398 -0.200479
0.32251999 -0.65184999 -0.20411301
0.324765 -0.64373899 -0.209371
0.30493501 -0.67828298 -0.168658
0.32276699 -0.62826502 -0.223142
0.332672 -0.62127203 -0.226408
0.211025 -0.55933601 0.065879002
0.216904 -0.565359 0.056283001
0.222085 -0.57173401 0.050096001
0.22587401 -0.57371598 0.042840999
0.23084199 -0.57670301 0.036198001
0.20490099 -0.53772098 0.072980002
0.20473801 -0.53970498 0.071263999
0.20489199 -0.54259598 0.069199003
0.205346 -0.54592502 0.070215002
0.20664699 -0.551507 0.069614999
0.207765 -0.55532998 0.070481002
0.23689599 -0.58385599 0.037687998
0.23775101 -0.58493298 0.035778001
0.243504 -0.59263402 0.040541999
0.243663 -0.59453601 0.037756
0.247401 -0.60162002 0.038587999
0.247307 -0.61105901 0.032179002
0.243476 -0.62982202 0.0041419999
0.23766799 -0.62763 -0.0050499998
0.22983199 -0.624309 -0.014264
0.24814799 -0.62235999 0.022775
0.25049299 -0.63402301 0.015171
0.23299 -0.48214501 0.1296
0.227201 -0.486911 0.121631
0.230326 -0.49225 0.12782399
0.226257 -0.49781901 0.121843
0.223262 -0.50440502 0.114819
0.220725 -0.51685601 0.110705
0.21952599 -0.52846497 0.108476
0.21628299 -0.53407699 0.098343
0.21093901 -0.54416603 0.083731003
0.206221 -0.53775299 0.075939998
0.217161 -0.54657501 0.096868999
0.35308999 -0.60226798 -0.23457301
0.35608801 -0.59496498 -0.24026
0.357636 -0.58452302 -0.24888
0.36015099 -0.57403201 -0.25723401
0.33406001 -0.60809499 -0.23134901
0.340909 -0.613141 -0.229086
0.34983 -0.60906702 -0.230866
0.36029801 -0.56869602 -0.26214999
0.360358 -0.56625497 -0.26540101
0.35106301 -0.56265301 -0.26909101
0.34505299 -0.55923998 -0.273031
0.342852 -0.55732298 -0.27694401
0.341261 -0.55660897 -0.28101099
0.33937901 -0.557989 -0.28948101
0.337374 -0.56209898 -0.302755
0.33090401 -0.56194502 -0.316329
0.319213 -0.555296 -0.32070401
0.309084 -0.54854798 -0.32438701
0.30348301 -0.54148698 -0.315184
0.29642701 -0.53739202 -0.31945199
0.29043499 -0.53502703 -0.32207701
0.28628099 -0.53009099 -0.31457099
0.28000501 -0.52539301 -0.31093201
0.26869601 -0.51078302 -0.29622501
0.273478 -0.51995301 -0.30683899
0.304694 -0.471508 -0.34863999
0.31271699 -0.46754301 -0.35367399
0.31053999 -0.47085801 -0.35402799
0.31671101 -0.46505201 -0.35455
0.32170999 -0.464454 -0.35728899
0.25976101 -0.51243699 -0.299088
0.24371 -0.50991303 -0.299171
0.242717 -0.512182 -0.30072501
0.249648 -0.51616299 -0.304308
0.244322 -0.51421899 -0.30211899
0.239324 -0.51269603 -0.30252799
0.233952 -0.51439798 -0.304878
0.232106 -0.51382798 -0.30551699
0.23397601 -0.503066 -0.32315299
0.23889799 -0.49927801 -0.32697999
0.246609 -0.49457601 -0.33052501
0.241395 -0.498822 -0.329537
0.249677 -0.49383199 -0.333464
0.226311 -0.51027501 -0.31661701
0.22881199 -0.51008099 -0.32109499
0.23348001 -0.506832 -0.32638001
0.235907 -0.503003 -0.327191
0.23557501 -0.50218999 -0.325818
0.25494301 -0.492026 -0.336761
0.26184699 -0.48868501 -0.33948401
0.229495 -0.51338601 -0.306696
0.22697601 -0.51315701 -0.30814499
0.225861 -0.51289302 -0.30916601
0.225164 -0.51281703 -0.309971
0.225137 -0.51147401 -0.31150901
0.22463299 -0.51259601 -0.312242
0.22513799 -0.51137203 -0.31423199
0.26414201 -0.489382 -0.34120801
0.26784 -0.48804301 -0.34183401
0.27579099 -0.48308301 -0.34173301
0.274995 -0.48183 -0.340415
0.27702901 -0.48049 -0.34048399
0.282731 -0.48013899 -0.341768
0.289933 -0.47981 -0.34319201
0.29366899 -0.479215 -0.344221
0.29761201 -0.476803 -0.345442
0.32417399 -0.46474299 -0.35837501
0.42775699 -0.52347797 -0.31900299
0.43479601 -0.52490401 -0.32021999
0.437341 -0.52228999 -0.31714901
0.44691399 -0.52231199 -0.317763
0.45674199 -0.525985 -0.32337999
0.486669 -0.51453 -0.309551
0.46594101 -0.52907997 -0.32588199
0.47971001 -0.52371502 -0.32223299
0.485131 -0.52320302 -0.32136101
0.48592699 -0.51867801 -0.31610999
0.49253699 -0.51237798 -0.29722199
0.49527699 -0.51322401 -0.29109299
0.49041 -0.51364702 -0.304472
0.500579 -0.51671898 -0.281057
0.33078 -0.466755 -0.35959801
0.33786699 -0.47198299 -0.36156601
0.33454099 -0.47032601 -0.361873
0.335522 -0.47323999 -0.36318099
0.33852199 -0.47840399 -0.363922
0.342715 -0.48413399 -0.363206
0.340707 -0.48698899 -0.365318
0.34020799 -0.492852 -0.366263
0.34430999 -0.49509701 -0.36432001
0.34972 -0.50188798 -0.36052501
0.34780201 -0.50832897 -0.362225
0.35370499 -0.513524 -0.35784301
0.361545 -0.516294 -0.35079101
0.367935 -0.52054298 -0.344735
0.371797 -0.519638 -0.34076801
0.377516 -0.52154499 -0.336658
0.38247201 -0.52403599 -0.334389
0.389494 -0.52456099 -0.33113801
0.39819399 -0.52537799 -0.32828599
0.40753999 -0.524948 -0.32517099
0.41183299 -0.52589101 -0.32459399
0.41756099 -0.526263 -0.32371199
0.42785999 -0.52520198 -0.320649
0.681297 -0.209668 -0.017279999
0.68200803 -0.21718299 -0.013753
0.68488997 -0.22277901 -0.014345
0.68809301 -0.226266 -0.015208
0.69051301 -0.23090599 -0.014092
0.69308501 -0.23251601 -0.013994
0.69476402 -0.231709 -0.014938
0.70016497 -0.23846 -0.010455
0.70325297 -0.23441599 -0.013411
0.71224999 -0.23454 -0.013874
0.72278398 -0.240197 -0.013595
0.73187798 -0.240367 -0.019171
0.74297398 -0.241154 -0.027024001
0.75295001 -0.232454 -0.039701
0.75279301 -0.242118 -0.033011001
0.76378798 -0.234708 -0.042240001
0.778256 -0.22338399 -0.053553998
0.77533501 -0.23384 -0.045492999
0.79466897 -0.197575 -0.062872
0.80278301 -0.188596 -0.063813999
0.79306698 -0.168625 -0.076109998
0.80549902 -0.18038 -0.065879002
0.80417901 -0.168042 -0.069857001
0.78721303 -0.223702 -0.053644001
0.79296798 -0.22143 -0.053819999
0.797243 -0.217678 -0.053824
0.79650199 -0.20649999 -0.057845999
0.79919899 -0.157654 -0.076095998
0.80361903 -0.146818 -0.077281997
0.80530798 -0.13728701 -0.079444997
0.80694199 -0.126083 -0.080352999
0.84025902 0.116742 -0.131625
0.83214003 0.126278 -0.12968101
0.850326 0.108936 -0.13164499
0.82580203 0.13658001 -0.126517
0.81604999 0.14951099 -0.122316
0.80776697 -0.030592 -0.079273
0.80788797 -0.021955 -0.07542
0.812419 -0.132339 -0.072751001
0.81515002 -0.117718 -0.072122
0.819188 -0.108798 -0.067736998
0.81533903 -0.098186001 -0.074156001
0.81456602 -0.084781997 -0.072131999
0.81336302 -0.062565997 -0.064873002
0.81632602 -0.075737998 -0.063419998
0.810642 -0.049920999 -0.069271997
0.80830997 -0.036963001 -0.070955999
0.81867301 -0.0044439998 -0.092134997
0.82308602 -0.001162 -0.099183001
0.82761699 0.000695 -0.099044003
0.84216398 0.0061329999 -0.100981
0.84444898 0.010893 -0.104439
0.83253402 0.001405 -0.097084001
0.83808398 0.002903 -0.098073997
0.849895 0.020532001 -0.106567
0.85214901 0.030787 -0.107891
0.85833597 0.041327 -0.107938
0.85734397 0.047152001 -0.113123
0.85973603 0.054336999 -0.116973
0.80914003 -0.016766001 -0.076843001
0.81111199 -0.012568 -0.078579001
0.812217 -0.011887 -0.084458001
0.81629902 -0.0068029999 -0.085394002
0.86070698 0.065365002 -0.120679
0.86546803 0.05914 -0.115412
0.86155999 0.076374002 -0.12238
0.86213499 0.087321997 -0.12525301
0.85338199 0.091701001 -0.13234
0.85133302 0.096570998 -0.133432
0.80562103 0.157289 -0.120454
0.80597103 0.1675 -0.114375
0.79717499 0.176449 -0.110649
0.78786099 0.181486 -0.107543
0.77649498 0.186169 -0.104697
0.76980501 0.187978 -0.103408
0.76809901 0.18336301 -0.105862
0.76549798 0.18364 -0.104535
0.76226503 0.185084 -0.101356
0.75866902 0.185968 -0.097203001
0.75585097 0.18569399 -0.093088001
0.75332701 0.18494999 -0.088072002
0.75217402 0.181849 -0.085081004
0.51484501 -0.527569 -0.268222
0.509076 -0.523956 -0.28020599
0.52820498 -0.53770101 -0.252536
0.53064102 -0.53719997 -0.24434599
0.52314198 -0.53583902 -0.26593199
0.54894203 -0.546363 -0.23112901
0.53906798 -0.54205 -0.24011201
0.55989498 -0.55162299 -0.22295301
0.56520402 -0.55238998 -0.215278
0.56964099 -0.55168498 -0.208482
0.574476 -0.55162901 -0.202427
0.57902598 -0.55083001 -0.197053
0.584656 -0.54835498 -0.191081
0.59048599 -0.54193699 -0.185276
0.59870702 -0.53558499 -0.173733
0.598728 -0.54458702 -0.176844
0.60529298 -0.53646201 -0.166371
0.61159801 -0.53878701 -0.159399
0.612333 -0.536008 -0.153934
0.61724102 -0.53859103 -0.144364
0.61369097 -0.53386801 -0.139017
0.60891998 -0.52913803 -0.129568
0.60617 -0.52748102 -0.119846
0.60070902 -0.52513498 -0.111257
0.59377301 -0.52331603 -0.099610001
0.590666 -0.52469897 -0.088867001
0.579377 -0.51830697 -0.088243
0.56713402 -0.51393801 -0.08337
0.55893201 -0.50976998 -0.082300998
0.56700999 -0.51659602 -0.076100998
0.561643 -0.51319599 -0.071516998
0.56529301 -0.51182902 -0.059717
0.56751102 -0.51679301 -0.063510001
0.57800502 -0.50826699 -0.033172
0.57340997 -0.50073898 -0.027806999
0.57391 -0.51885903 -0.054076999
0.57775199 -0.51508802 -0.043189999
0.578053 -0.49956799 -0.017395001
0.56757998 -0.49074101 -0.016119
0.55741102 -0.480322 -0.010999
0.55598301 -0.473546 0.00052100001
0.56092501 -0.47824699 0.001009
0.55451798 -0.46812001 0.005746
0.55437398 -0.463534 0.0094839996
0.55019897 -0.459333 0.0067810002
0.54622501 -0.45557201 0.0044069998
0.80710697 0.091903001 -0.040249001
0.81213301 0.078489996 -0.045325998
0.81778401 0.066218004 -0.049890999
0.82521099 0.054708 -0.053621002
0.79341298 0.110753 -0.036917001
0.80221599 0.102178 -0.036708001
0.82928997 0.043455999 -0.056671001
0.823313 0.030667 -0.059625
0.798392 0.012854 -0.058685001
0.82040399 0.018389 -0.062258001
0.811993 0.010542 -0.063235
0.80520201 0.0057470002 -0.061930001
0.79830402 0.0071020001 -0.058433998
0.79126799 0.008901 -0.055266999
0.785649 0.0055010002 -0.050671
0.77898502 -0.015702 -0.034492999
0.78539199 -0.0049530002 -0.045242
0.78417403 -0.011737 -0.039717998
0.77990597 -0.028188 -0.024583001
0.77146202 -0.032483 -0.017484
0.76849902 -0.039956 -0.0095370002
0.76444399 -0.045958001 -0.001467
0.75266999 -0.054341 0.0068700002
0.76267999 -0.052618001 0.0051099998
0.75056899 0.177478 -0.077422
0.75202602 0.168411 -0.081421003
0.75170201 0.17005201 -0.076297998
0.75280303 0.16789199 -0.067376003
0.75410801 0.168411 -0.056444
0.756118 0.169459 -0.046094999
0.76073802 0.165574 -0.037046999
0.76327699 0.156195 -0.036483999
0.75788301 0.170692 -0.040638998
0.76636797 0.158226 -0.033353999
0.77307999 0.15358 -0.030378001
0.77602899 0.144237 -0.031213
0.77934498 0.142378 -0.031043001
0.77904999 0.129582 -0.033953998
0.784316 0.123318 -0.035433002
0.78992099 0.120771 -0.036017001
0.71385002 -0.153227 0.047224
0.71774799 -0.145612 0.050466001
0.74337697 -0.073762 0.020034
0.75058401 -0.076881997 0.026179999
0.74988002 -0.085307002 0.033489
0.74899697 -0.095435001 0.040376
0.741422 -0.100508 0.041046001
0.73788399 -0.107252 0.043731
0.73286802 -0.11674 0.044810001
0.725133 -0.126103 0.043189999
0.72587103 -0.132783 0.049718
0.72365803 -0.14081401 0.055124
0.75308597 -0.068089999 0.018085999
0.68789798 -0.23985299 0.013037
0.68620199 -0.238839 0.0084469998
0.68530297 -0.23469201 0.0057109999
0.688438 -0.24431001 0.019522
0.68361002 -0.230473 0.0031330001
0.68229997 -0.227952 0.00030700001
0.68141598 -0.22155 -0.0073529999
0.68156701 -0.22660699 -0.003177
0.68145299 -0.21812201 -0.011476
0.69621497 -0.244095 0.040498
0.70232302 -0.230039 0.044815
0.69859201 -0.243628 0.048145998
0.69087201 -0.248073 0.030675
0.70730299 -0.21708199 0.044167001
0.70948398 -0.179703 0.050138999
0.714858 -0.161945 0.053598002
0.71189702 -0.17334799 0.054455999
0.70938498 -0.187203 0.057457
0.70912498 -0.194657 0.051929001
0.710168 -0.205679 0.05077
0.70893598 -0.212631 0.046613
0.55401099 -0.45514899 0.016029
0.55216098 -0.45719001 0.01172
0.55795699 -0.45291001 0.022095
0.563438 -0.45082399 0.029011
0.567357 -0.447245 0.040725999
0.57080603 -0.44916701 0.037909001
0.57283503 -0.44526699 0.049387001
0.57387 -0.44387901 0.056334
0.57712603 -0.44263601 0.063135996
0.57950503 -0.44247401 0.074809
0.58414698 -0.44224799 0.087256998
0.49964899 -0.48995501 0.199471
0.49034899 -0.49519399 0.20115501
0.480452 -0.50085801 0.200975
0.551678 -0.46470299 0.15756799
0.56208599 -0.46094301 0.15108401
0.53974199 -0.46916899 0.16274001
0.58758998 -0.44287899 0.099260002
0.587614 -0.443973 0.111756
0.58060497 -0.44861099 0.12263
0.58203602 -0.44884601 0.13709401
0.56904697 -0.45679101 0.143483
0.52797401 -0.47542101 0.17131101
0.52269 -0.47931799 0.184415
0.519593 -0.482999 0.195133
0.50812799 -0.48645899 0.19713099
0.433837 -0.492392 0.173611
0.43294901 -0.49195901 0.17511199
0.43039 -0.49339399 0.173724
0.42780301 -0.49420801 0.17175899
0.41703299 -0.492017 0.16706599
0.41909599 -0.48991901 0.16170999
0.42110801 -0.48707801 0.15523501
0.42416799 -0.49518201 0.17122599
0.420764 -0.49514201 0.169826
0.417963 -0.49502301 0.169888
0.41846699 -0.48478001 0.15480199
0.41703099 -0.4833 0.155283
0.475696 -0.50572997 0.204119
0.46998301 -0.50361401 0.198312
0.465974 -0.50875199 0.202512
0.458985 -0.50438797 0.193665
0.449808 -0.50574601 0.19051699
0.45122099 -0.50125003 0.185588
0.45040101 -0.49711999 0.180949
0.44789001 -0.49520499 0.177976
0.44465199 -0.494037 0.177274
0.44336301 -0.49333501 0.174348
0.43848401 -0.49240601 0.172599
0.44152901 -0.49296299 0.174445
0.43875101 -0.49212801 0.173943
0.435054 -0.491595 0.174596
0.436544 -0.491979 0.173803
0.413863 -0.472352 0.151363
0.414309 -0.47511101 0.151921
0.415209 -0.48075801 0.156554
0.41553399 -0.47492501 0.160225
0.417283 -0.47380701 0.165077
0.420344 -0.46663901 0.166236
0.42483899 -0.45836401 0.167143
0.42955899 -0.439863 0.159863
0.42957401 -0.430554 0.15630201
0.428821 -0.44767699 0.164267
0.299256 -0.40549701 0.185049
0.292317 -0.41734099 0.182107
0.32235101 -0.383789 0.198567
0.31587201 -0.39857501 0.201184
0.30805501 -0.404688 0.19476099
0.28547099 -0.428624 0.17801
0.27831501 -0.43939701 0.17361499
0.27117801 -0.44966999 0.16666301
0.26416501 -0.44860899 0.158675
0.25682101 -0.45881701 0.15356
0.24974 -0.46181101 0.144398
0.242283 -0.47146201 0.13856301
0.43043801 -0.42047 0.15610901
0.427214 -0.41179401 0.150573
0.426404 -0.39341599 0.155146
0.42479101 -0.38323599 0.1561
0.41809401 -0.38139701 0.14967801
0.426898 -0.40438101 0.152319
0.42279401 -0.374827 0.157756
0.41649899 -0.36096099 0.160549
0.42180899 -0.36676201 0.16097599
0.40728101 -0.35664499 0.15894599
0.403036 -0.35089201 0.159685
0.39893001 -0.35039401 0.157525
0.39762101 -0.34558201 0.157285
0.393343 -0.34059799 0.155999
0.398478 -0.341198 0.158961
0.39769599 -0.33904999 0.159457
0.394458 -0.337203 0.159214
0.396788 -0.332295 0.164161
0.394476 -0.32946801 0.16643199
0.39494699 -0.32416299 0.170789
0.391013 -0.31865001 0.177544
0.38430899 -0.31647 0.18447
0.37451699 -0.324646 0.18647
0.38055 -0.31549999 0.19000299
0.373043 -0.32416999 0.192416
0.36704999 -0.33238301 0.193267
0.36209899 -0.337805 0.199964
0.350362 -0.34827501 0.201116
0.345626 -0.35347199 0.20266899
0.34017399 -0.35613501 0.195777
0.334016 -0.35944501 0.187179
0.32992801 -0.36419299 0.19051699
0.32752401 -0.36815399 0.19265001
0.226597 -0.64319599 -0.042924002
0.22891299 -0.65094697 -0.054419
0.240485 -0.63792098 -0.008409
0.231829 -0.640275 -0.025250001
0.23165999 -0.64599299 -0.032512002
0.233723 -0.6595 -0.068043999
0.233317 -0.656555 -0.054802999
0.241373 -0.66684997 -0.073285997
0.23797999 -0.66450697 -0.084192999
0.249465 -0.67335099 -0.102645
0.253934 -0.67467999 -0.113263
0.25800401 -0.67341697 -0.125383
0.246379 -0.67162502 -0.088202998
0.29875499 -0.681346 -0.157184
0.28686199 -0.68216503 -0.143692
0.27681199 -0.68218499 -0.13113099
0.264548 -0.67921799 -0.120951
0.32910699 -0.63477999 -0.216883
0.31111699 -0.674312 -0.179777
0.316585 -0.669765 -0.189114
0.32017201 -0.66495299 -0.195354
0.33078399 -0.66262299 -0.198475
0.33330899 -0.65592498 -0.202161
0.335816 -0.64727998 -0.206269
0.33943701 -0.64062399 -0.210724
0.31253001 -0.68640703 -0.15711901
0.31859699 -0.68250102 -0.16960301
0.33655 -0.62626201 -0.22370499
0.34542701 -0.61967403 -0.22672801
0.211955 -0.56381798 0.072793998
0.216415 -0.56961501 0.067737997
0.21027599 -0.56064898 0.074951999
0.222781 -0.57655799 0.060568001
0.22758199 -0.58010501 0.052963998
0.233046 -0.58287603 0.046833999
0.20697901 -0.54768598 0.075994998
0.20634399 -0.54878199 0.073403999
0.206833 -0.55291498 0.071897998
0.208087 -0.55544698 0.074679002
0.239788 -0.58829302 0.044817001
0.24224 -0.590738 0.042849001
0.24814799 -0.59658003 0.048074
0.250489 -0.59967798 0.047285002
0.254715 -0.60629499 0.047816001
0.254893 -0.61360103 0.042854998
0.25387701 -0.622769 0.034727
0.247611 -0.64249301 0.002145
0.25543001 -0.63325799 0.027104
0.26054099 -0.64533901 0.025993001
0.25517401 -0.64755303 0.013354
0.24296901 -0.47942001 0.143709
0.23783 -0.48631001 0.13752601
0.24045999 -0.49596101 0.14168601
0.22866701 -0.50440699 0.12556501
0.22485501 -0.51129597 0.119061
0.223579 -0.52591199 0.116782
0.22937 -0.51943702 0.12604301
0.220383 -0.54055297 0.107499
0.223131 -0.536515 0.114951
0.214347 -0.55449998 0.089382
0.210135 -0.55328 0.081205003
0.222652 -0.55219698 0.107528
0.219271 -0.55827099 0.099168003
0.36395401 -0.60073 -0.23441
0.35971099 -0.60697597 -0.23139299
0.367322 -0.58996397 -0.243359
0.37092701 -0.57902402 -0.25218901
0.37245101 -0.57202297 -0.25798801
0.35419899 -0.61678898 -0.227552
0.370597 -0.56889701 -0.26170999
0.36828601 -0.56707799 -0.26521
0.36644799 -0.56540698 -0.26980799
0.357678 -0.56377 -0.26957101
0.35110801 -0.56100601 -0.27382299
0.350674 -0.56047899 -0.27757701
0.34662601 -0.55976701 -0.28339499
0.347635 -0.56445497 -0.29447299
0.35055399 -0.570041 -0.30613101
0.341694 -0.56804001 -0.31480199
0.34058899 -0.57084799 -0.32558599
0.32631299 -0.56253898 -0.32873699
0.31557399 -0.555969 -0.33249801
0.30619401 -0.54698598 -0.33222499
0.30054501 -0.54181898 -0.32678699
0.28191301 -0.53202802 -0.32195199
0.29019099 -0.53653997 -0.32812601
0.277583 -0.52841002 -0.31623501
0.26817501 -0.524782 -0.313063
0.26236501 -0.51835197 -0.30665499
0.301952 -0.47874901 -0.35032001
0.31731501 -0.46948501 -0.35841599
0.31938499 -0.466773 -0.358309
0.310653 -0.477052 -0.35653201
0.32183301 -0.46575001 -0.359119
0.242028 -0.51384801 -0.30221599
0.255027 -0.52238798 -0.31253499
0.24382301 -0.51994801 -0.310269
0.238148 -0.51803797 -0.30682799
0.2384 -0.51701099 -0.30557901
0.235672 -0.51640701 -0.30522001
0.234207 -0.515598 -0.30514601
0.229904 -0.516204 -0.306465
0.239116 -0.50222701 -0.32993001
0.247155 -0.49676299 -0.33379301
0.24593399 -0.49928901 -0.334279
0.25210699 -0.49763501 -0.33793399
0.255355 -0.49370801 -0.33832201
0.22533999 -0.512375 -0.31556299
0.226478 -0.51360399 -0.31846699
0.22724301 -0.51253498 -0.319635
0.23207299 -0.51145703 -0.32600001
0.23617899 -0.50633299 -0.329312
0.25941899 -0.49352601 -0.340711
0.22721 -0.51544398 -0.30771601
0.225389 -0.51380998 -0.30926701
0.22513901 -0.513331 -0.309863
0.22503 -0.51478302 -0.31037301
0.224742 -0.51359898 -0.31266001
0.22520299 -0.51387501 -0.315137
0.265569 -0.490729 -0.34242499
0.27107999 -0.48912501 -0.34327999
0.27823901 -0.48408899 -0.34326401
0.27899 -0.481498 -0.34205401
0.28722599 -0.48223799 -0.34427199
0.29208499 -0.48252201 -0.34561101
0.29612899 -0.481879 -0.34738499
0.32353699 -0.46607801 -0.36008701
0.32627499 -0.46733701 -0.36104801
0.429371 -0.526752 -0.32283401
0.43516099 -0.52700502 -0.323751
0.44637999 -0.52530199 -0.321872
0.45600799 -0.52965701 -0.32737601
0.49469399 -0.51701301 -0.30616301
0.490962 -0.51824701 -0.312711
0.45872501 -0.53351599 -0.329539
0.467345 -0.53615302 -0.32995301
0.47744501 -0.53142202 -0.32750601
0.485688 -0.52995998 -0.326388
0.48852399 -0.52740198 -0.32383701
0.49250999 -0.52661598 -0.32090101
0.48987299 -0.522228 -0.31850699
0.494041 -0.52219802 -0.315263
0.50135797 -0.51810598 -0.28890401
0.49650499 -0.51555401 -0.298908
0.33087501 -0.4711 -0.363107
0.328881 -0.47313499 -0.364106
0.33334199 -0.476087 -0.36484799
0.333886 -0.482151 -0.36629599
0.33733299 -0.483064 -0.36588499
0.331175 -0.48938501 -0.367461
0.33598301 -0.49128401 -0.36722401
0.33465001 -0.49721 -0.36742401
0.33970699 -0.50078201 -0.36632001
0.34373999 -0.50048399 -0.36492401
0.34461901 -0.509776 -0.36368501
0.35238001 -0.51709598 -0.359469
0.35942999 -0.51915598 -0.353672
0.347873 -0.51562899 -0.36201501
0.36662099 -0.52204102 -0.346964
0.372924 -0.52491498 -0.34185299
0.374145 -0.52319598 -0.33969101
0.37891299 -0.52557701 -0.337419
0.38786399 -0.52622402 -0.332506
0.385474 -0.52708298 -0.33429301
0.391368 -0.52767098 -0.33205101
0.398682 -0.52672601 -0.32891899
0.40168199 -0.52774602 -0.329
0.409244 -0.52806598 -0.32747799
0.418717 -0.52842301 -0.32631299
0.68365902 -0.22560599 -0.010491
0.685224 -0.230038 -0.0094760004
0.68774301 -0.230204 -0.012471
0.68924099 -0.232813 -0.011369
0.69239002 -0.234962 -0.011252
0.69658703 -0.240042 -0.0081120003
0.702191 -0.247449 -0.003208
0.70906198 -0.24302401 -0.0080000004
0.71813601 -0.243287 -0.0094729997
0.72895497 -0.25021201 -0.0097409999
0.73995697 -0.250788 -0.016747
0.751939 -0.25087401 -0.026070001
0.76149899 -0.246106 -0.034678999
0.77131301 -0.243589 -0.039009001
0.78666198 -0.23190901 -0.048326001
0.78359598 -0.24074 -0.042959999
0.80645299 -0.199176 -0.055794001
0.81240797 -0.18458501 -0.060008999
0.811773 -0.177562 -0.062638
0.81303602 -0.16456001 -0.065160997
0.80968601 -0.153658 -0.070366003
0.79615998 -0.232416 -0.047568001
0.80157399 -0.228496 -0.047963999
0.80837703 -0.2218 -0.047199
0.80725598 -0.20863301 -0.051291
0.81206501 -0.143558 -0.071074001
0.851403 0.121036 -0.12712701
0.84369701 0.13162801 -0.124793
0.838871 0.143456 -0.120752
0.858226 0.106157 -0.129475
0.85955 0.113199 -0.127258
0.82656801 0.148296 -0.121297
0.82332897 0.159859 -0.116313
0.81275803 0.160349 -0.11705
0.80739099 -0.027734 -0.071350001
0.80618799 -0.021592 -0.067612998
0.80767399 -0.016949 -0.071365997
0.82008499 -0.129925 -0.064410999
0.82038897 -0.142471 -0.063628003
0.82138199 -0.118593 -0.063202001
0.82351899 -0.1101 -0.059941001
0.81978798 -0.099653997 -0.065702997
0.82020301 -0.089201003 -0.060338002
0.81736898 -0.070262998 -0.056306999
0.81661397 -0.066242002 -0.052577998
0.81300998 -0.056864001 -0.059648
0.82283902 -0.085141003 -0.050166
0.809654 -0.044686999 -0.063514002
0.807105 -0.033404 -0.063823998
0.821199 -0.00287 -0.083710998
0.824081 -0.001503 -0.089346997
0.82890099 0.000228 -0.093478002
0.84742302 0.0027030001 -0.095527999
0.85058999 0.0059779999 -0.098093003
0.85397601 0.0092860004 -0.099587001
0.85236901 0.014434 -0.102953
0.83338201 0.000421 -0.092340998
0.83832502 0.000825 -0.093661003
0.84480399 0.00059800001 -0.092917003
0.86082399 0.025637001 -0.102275
0.86266202 0.037439 -0.103491
0.86915702 0.041963 -0.101096
0.868146 0.047584001 -0.105634
0.87018299 0.055399999 -0.110365
0.81009197 -0.011835 -0.074127004
0.81284398 -0.0084239999 -0.076215997
0.81404197 -0.0088229999 -0.080195002
0.81797701 -0.004923 -0.081024997
0.87169701 0.064828001 -0.113027
0.87070298 0.075012997 -0.115153
0.876378 0.059792999 -0.108882
0.87240201 0.083544001 -0.115773
0.87072098 0.092101 -0.120385
0.86336398 0.095173001 -0.12657399
0.85998201 0.100668 -0.128996
0.81605202 0.168837 -0.111801
0.80976701 0.17590301 -0.107541
0.80241698 0.177488 -0.108567
0.798163 0.18750501 -0.102431
0.794429 0.18705399 -0.103658
0.78569001 0.194151 -0.099308997
0.77292103 0.19611 -0.098059997
0.76601201 0.191852 -0.099763997
0.76342797 0.19272 -0.097666003
0.76024997 0.19371 -0.094182998
0.75652498 0.194086 -0.089446001
0.75326401 0.19401801 -0.083965003
0.75051701 0.193947 -0.077818997
0.74979502 0.18843 -0.075960003
0.51741803 -0.531003 -0.275756
0.50591397 -0.524046 -0.292391
0.51357001 -0.52945101 -0.28485799
0.53020698 -0.54161 -0.26301199
0.53853297 -0.54419899 -0.25061899
0.52124703 -0.53636098 -0.279419
0.52827001 -0.54227501 -0.27158299
0.54804897 -0.54933399 -0.24249101
0.55764002 -0.55370897 -0.233704
0.56778598 -0.55870199 -0.225209
0.57042801 -0.55693698 -0.21455599
0.57467002 -0.55669999 -0.20695101
0.57862097 -0.55619001 -0.20037
0.58322001 -0.55590302 -0.19418301
0.58736002 -0.55462003 -0.189279
0.593898 -0.55233401 -0.182676
0.60618401 -0.54282302 -0.169018
0.59964198 -0.55854201 -0.178323
0.60700101 -0.553514 -0.170568
0.61273998 -0.54381299 -0.161704
0.61861098 -0.54590702 -0.153428
0.61998898 -0.54391098 -0.14791501
0.624816 -0.54520202 -0.136673
0.62208903 -0.540995 -0.132642
0.61802202 -0.53646898 -0.125679
0.61712402 -0.53609002 -0.118136
0.61180001 -0.53398001 -0.108954
0.604186 -0.53100199 -0.099822998
0.60144198 -0.53203398 -0.088109002
0.59955901 -0.53388798 -0.079011999
0.58821601 -0.52755398 -0.079166003
0.57669401 -0.52193999 -0.077494003
0.57472801 -0.52306199 -0.071368001
0.56867701 -0.51880902 -0.07017
0.57599699 -0.52356797 -0.058456998
0.57082701 -0.52055699 -0.065062001
0.58726299 -0.518139 -0.033073999
0.586101 -0.50912303 -0.022665
0.58306199 -0.52790397 -0.051739
0.585253 -0.52516502 -0.044567
0.58781099 -0.499872 -0.002568
0.578731 -0.495065 -0.0058070002
0.588184 -0.50518799 -0.013354
0.56841397 -0.486523 -0.0050679999
0.55939001 -0.47305399 0.0079709999
0.572676 -0.485259 0.0066869999
0.56625599 -0.47896501 0.0090659996
0.56029999 -0.46988499 0.01231
0.55867302 -0.463052 0.014479
0.55684799 -0.45845199 0.015303
0.81044799 0.104807 -0.035918999
0.82403803 0.101883 -0.037866998
0.82069498 0.089235999 -0.042302001
0.82615799 0.077229999 -0.047109
0.830953 0.066500999 -0.050944
0.83956802 0.055741999 -0.053814001
0.79534203 0.12438 -0.034067001
0.802881 0.11168 -0.034095
0.84146899 0.044142 -0.057943001
0.83578998 0.03503 -0.060152002
0.82967198 0.02627 -0.061404001
0.82868499 0.017890001 -0.062302999
0.82753801 0.013972 -0.063433997
0.81964999 0.011966 -0.064211003
0.81012601 0.0056289998 -0.064142004
0.816194 0.0078539997 -0.065421999
0.80660999 0.00085499999 -0.063409001
0.80238599 0.00012700001 -0.060642
0.79574102 0.001523 -0.056063998
0.79213899 -0.0033859999 -0.051720001
0.78515899 -0.022147 -0.032343999
0.79119301 -0.0094550001 -0.047657002
0.78967297 -0.016517 -0.040073998
0.78579098 -0.031206001 -0.025117001
0.78526902 -0.039965 -0.017077001
0.77844298 -0.041967999 -0.012466
0.775325 -0.048882999 -0.0048989998
0.770814 -0.055461999 0.00416
0.75778502 -0.060690001 0.012287
0.76777601 -0.061282001 0.011891
0.763228 -0.060635999 0.012455
0.74983501 0.17949601 -0.072024003
0.75094301 0.178801 -0.062714003
0.75293601 0.179223 -0.051070999
0.75514799 0.18218 -0.041556001
0.76054901 0.176149 -0.03469
0.762927 0.166824 -0.034116
0.75769401 0.179543 -0.037356
0.76544303 0.170918 -0.031484999
0.77131402 0.165052 -0.029332001
0.77533501 0.163995 -0.027853001
0.77795798 0.154728 -0.028802
0.78117001 0.15286499 -0.028952001
0.78480703 0.13797 -0.032166999
0.79130101 0.134424 -0.033041
0.71945399 -0.157372 0.061060999
0.72293597 -0.148451 0.060504001
0.75823897 -0.079402998 0.030843999
0.76144302 -0.069669999 0.021486999
0.756365 -0.088347003 0.037298001
0.75808901 -0.098623998 0.044592001
0.750471 -0.105968 0.049005002
0.74528599 -0.108765 0.049111001
0.74175203 -0.115129 0.051100999
0.73579699 -0.123426 0.051702
0.73837399 -0.12920199 0.060501002
0.73178798 -0.139257 0.063887
0.68608397 -0.245681 0.014714
0.68591797 -0.242873 0.0098829996
0.68564498 -0.24044301 0.0068890001
0.68522102 -0.238674 0.004005
0.68454403 -0.234981 0.003215
0.68748802 -0.25512499 0.029402999
0.68533498 -0.25129199 0.019181
0.68333697 -0.23160701 0.00059200003
0.683258 -0.23162299 -0.0013830001
0.68210697 -0.227634 -0.0049820002
0.68222702 -0.225293 -0.0080789998
0.69340199 -0.25465801 0.045265
0.705073 -0.224884 0.052143998
0.70142299 -0.236077 0.053211
0.69963002 -0.245947 0.058182999
0.69725198 -0.25414899 0.056361999
0.689089 -0.26078099 0.038922999
0.71517199 -0.171617 0.062927999
0.71047401 -0.18486699 0.062766001
0.70974803 -0.19001999 0.064731002
0.70910102 -0.194122 0.061581001
0.70976597 -0.203631 0.058325998
0.70991302 -0.211144 0.053909
0.70901501 -0.215839 0.055574
0.56359798 -0.45602199 0.022345999
0.56244802 -0.45422199 0.023166001
0.56727999 -0.45214599 0.029611999
0.57267803 -0.44755101 0.042079002
0.573057 -0.45117801 0.036791999
0.57619101 -0.448699 0.042277001
0.57538003 -0.44572899 0.047586001
0.58060598 -0.44363999 0.052749999
0.58023697 -0.442514 0.056097001
0.58320498 -0.440667 0.061278
0.58622801 -0.438786 0.068069004
0.591097 -0.436883 0.077687003
0.59633303 -0.436894 0.091016002
0.50578099 -0.49233899 0.208202
0.497861 -0.496158 0.209426
0.487068 -0.50142699 0.208213
0.48084399 -0.50720698 0.20937499
0.560422 -0.462632 0.16453201
0.55007601 -0.46674001 0.17083199
0.56620598 -0.45945701 0.15744799
0.53875101 -0.47143501 0.175281
0.59793401 -0.436903 0.099825002
0.59828198 -0.43704301 0.112361
0.59107399 -0.442653 0.124838
0.59418899 -0.44086799 0.13743301
0.58792698 -0.44552299 0.14917099
0.57665598 -0.452631 0.15125699
0.53052402 -0.47655499 0.18453
0.52909797 -0.47950199 0.195418
0.52638799 -0.48418301 0.20435201
0.51716298 -0.488397 0.206618
0.434266 -0.49094 0.176046
0.43241999 -0.491319 0.176467
0.43057999 -0.49306801 0.175392
0.42726499 -0.494616 0.17467199
0.416172 -0.49077001 0.16693
0.416067 -0.49594399 0.171918
0.41522601 -0.49590099 0.172893
0.41473001 -0.49441701 0.172662
0.417539 -0.48784301 0.16058899
0.423112 -0.49670699 0.175203
0.42059901 -0.49764001 0.17467099
0.41894701 -0.49789599 0.173889
0.41721699 -0.49875301 0.174703
0.41634899 -0.49869299 0.17457099
0.41603199 -0.48509899 0.159839
0.472011 -0.51264697 0.20878699
0.463976 -0.51946002 0.210079
0.45690301 -0.51534802 0.204128
0.45429501 -0.50979298 0.19757199
0.448392 -0.51047999 0.195729
0.447721 -0.50770098 0.192598
0.44729701 -0.50577003 0.19050799
0.44927499 -0.501728 0.18599799
0.44930801 -0.49874201 0.183229
0.44814199 -0.49658 0.18088999
0.44601601 -0.494802 0.177798
0.44669399 -0.49555001 0.18002
0.44495201 -0.49413201 0.17934901
0.443277 -0.493388 0.177258
0.441946 -0.49245301 0.176882
0.44128799 -0.49274799 0.175679
0.437756 -0.49160501 0.17468999
0.43997699 -0.491999 0.175835
0.43612701 -0.491034 0.175584
0.41486701 -0.47694501 0.158473
0.41476101 -0.47948799 0.15855999
0.41507 -0.48162401 0.15913001
0.41555601 -0.48275399 0.16690999
0.41689599 -0.48226899 0.170844
0.41971701 -0.47497499 0.171726
0.422061 -0.475458 0.175458
0.42369401 -0.46802899 0.173511
0.42760199 -0.46026599 0.173603
0.43428901 -0.42780101 0.16513599
0.43426201 -0.442476 0.170344
0.434991 -0.435509 0.16825999
0.43230399 -0.449763 0.17227399
0.30061501 -0.41311899 0.189697
0.293421 -0.42526001 0.186496
0.33165801 -0.37033701 0.20222799
0.33035401 -0.37979299 0.20805401
0.32493699 -0.391765 0.208527
0.323248 -0.40142 0.21158101
0.315586 -0.407931 0.205189
0.307785 -0.41503099 0.197448
0.28696001 -0.43766499 0.18373001
0.277859 -0.45057899 0.176331
0.27390799 -0.46319801 0.173023
0.26509401 -0.46042201 0.162543
0.256717 -0.470061 0.156928
0.249709 -0.47115901 0.149349
0.42975399 -0.409646 0.15614
0.432767 -0.41614401 0.162037
0.43029201 -0.40246901 0.158949
0.43396401 -0.394238 0.165472
0.432206 -0.383966 0.164823
0.42951 -0.37408999 0.16488799
0.41999501 -0.356628 0.163332
0.41136199 -0.35238099 0.16199701
0.42369199 -0.361691 0.16388699
0.42701799 -0.365778 0.16530301
0.406461 -0.34321201 0.163186
0.40227199 -0.34451199 0.16089299
0.39666799 -0.337668 0.15973499
0.402336 -0.33910799 0.16238099
0.400049 -0.33405599 0.163807
0.40010199 -0.328623 0.16696399
0.399701 -0.325151 0.16903199
0.40429699 -0.320427 0.170481
0.40311399 -0.31555501 0.174649
0.39831099 -0.30871999 0.182487
0.39261499 -0.30901799 0.185385
0.38654 -0.30923599 0.190824
0.378306 -0.315496 0.19464
