# .PCD v0.7 - Point Cloud Data file format
VERSION 0.7
FIELDS x y z
SIZE 4 4 4
TYPE F F F
COUNT 1 1 1
WIDTH 1666
HEIGHT 1
VIEWPOINT 0 0 0 1 0 0 0
POINTS 1666
DATA ascii
1.08614 60.903301 28.121099
-0.67621899 60.484798 28.274
5.9730902 42.024399 28.344801
-6.3574901 46.519501 29.0966
13.5669 48.383301 28.0609
-7.2105899 48.9986 28.230499
-8.3867397 49.170601 26.4596
14.2877 48.699902 27.557199
15.2483 50.022499 26.849899
6.8834 56.738201 28.5259
-3.1570101 59.113201 28.0511
-3.2762001 60.524899 27.654301
-1.62071 59.114399 28.7927
-1.93425 59.816399 28.295601
1.2315 42.385201 28.9238
4.3659301 41.943298 28.7251
5.4689898 42.786098 28.8612
6.2070198 43.537601 29.0494
11.9868 44.557499 27.5613
12.4959 45.967098 28.0355
12.871 46.794498 28.125799
11.3707 48.269402 29.5874
4.7393599 58.601898 28.406799
3.54496 58.343102 29.524599
3.14662 41.192101 28.417801
7.2765002 42.857601 28.4501
8.4910097 44.347801 29.0753
-4.64254 54.4305 29.933701
-5.8104501 53.602001 28.5746
1.91515 42.867199 29.237
3.04123 42.567101 29.1126
-3.2468801 41.963902 28.0324
-3.90485 43.793701 29.2929
-2.36675 43.233101 29.211
-1.4039 43.616699 29.524799
1.2272201 43.4076 29.405001
2.6988499 43.2519 29.3859
3.6768899 43.849499 29.521
4.6507001 43.555302 29.33
4.2196298 44.778702 29.857201
1.66523 44.277802 29.7453
0.85617697 44.191898 29.7766
13.5103 50.3349 28.158199
11.998 50.908001 29.0991
-4.5106702 56.674099 28.3841
-3.74649 57.082298 28.9984
-2.3922 57.855999 29.5839
-5.2740898 44.345299 29.0014
-4.2663999 45.5541 30.125
2.6342101 44.2006 29.6674
7.2334499 43.684799 28.9174
6.9011402 44.779099 29.666901
2.2407601 45.064201 29.986601
2.0410299 45.898899 30.3232
9.6197205 45.082401 29.2115
10.8426 45.717899 28.963699
-6.0157599 48.457199 29.5919
7.2716799 54.553001 30.4638
6.9860501 55.744202 29.6392
-0.98547697 58.366699 29.919001
-0.63536602 44.2388 29.891701
-0.36449599 45.640999 30.644501
0.25928199 44.7407 30.114599
5.49369 45.6572 30.307199
7.0495901 46.1534 30.4832
2.33724 46.408298 30.5277
-5.0496502 47.124401 30.248301
-5.36517 52.585499 29.666401
-5.6842699 50.559101 29.7113
10.4361 51.930901 29.805901
10.556 53.065498 28.9557
8.8850698 53.124401 30.212099
-3.6787701 55.8008 30.326
-0.76305002 57.6311 31.0811
0.57868302 58.548401 30.105
2.3361101 59.195202 28.985399
2.09849 58.469799 30.0825
2.6549699 57.6605 30.932699
4.1038799 46.141201 30.5056
0.88855201 45.348301 30.3342
1.02779 46.418999 30.821699
1.72328 46.500999 30.686001
2.58884 45.8978 30.266701
9.0691795 48.247501 30.7819
9.8062696 49.405602 30.643801
-4.4822602 51.872299 30.744101
7.2570801 53.801998 30.9259
-3.2518499 56.744598 30.0121
8.9681196 46.088402 29.9692
3.3034201 47.252102 31.077299
3.0446301 46.4995 30.612801
10.1216 50.719501 30.394199
5.5205102 55.798302 30.8689
3.5843799 56.653702 31.501499
-3.77508 46.815498 30.7973
0.332008 46.259602 30.8815
0.150838 47.056099 31.237301
2.7950101 48.632599 31.7288
7.9022698 47.350498 30.8755
6.0156999 53.385799 31.761101
0.47103199 48.4039 31.6381
-2.7135601 45.479599 30.518499
-2.6724 47.750999 31.3169
-2.5502501 49.937401 31.7234
-0.30497101 48.249401 31.6649
-1.68777 48.746101 31.7458
1.0080301 48.894001 31.729099
2.3413701 49.961102 32.173599
1.72271 49.3937 31.9067
-3.1909399 51.5662 31.6078
-2.3468299 51.937 31.9508
-3.56054 53.550098 31.2904
-3.7175801 54.925201 30.8216
-3.05531 54.698898 31.471001
-2.2820301 54.386902 32.0005
5.5168099 54.509499 31.6464
4.6666198 55.519798 31.6374
-2.2780499 55.473701 31.7889
-2.6468799 56.198898 31.1758
-1.77438 56.4156 31.625
1.83038 56.748798 32.104599
3.5243599 48.533401 31.742001
4.7286801 49.412201 31.999399
6.7614899 48.5704 31.4942
6.1251302 50.382702 31.967501
3.15745 49.9897 32.223701
0.79524702 50.4006 32.1661
-0.84343499 50.068298 32.001701
-0.468925 51.0737 32.212502
7.7935801 50.545399 31.4862
0.235789 51.5355 32.441101
5.7403898 52.048 32.069302
4.40553 53.5396 32.357498
-1.48518 51.533798 32.123402
0.249975 56.622398 32.277802
-0.70883 56.611401 32.0242
0.92899799 51.817501 32.642601
-0.102412 52.426201 32.622002
-0.740991 53.280998 32.635101
2.9572799 53.6647 32.819801
3.6570001 54.133999 32.556
4.1224298 54.8335 32.195202
-2.0192399 52.904202 32.121498
-1.53161 53.805302 32.379799
1.4207799 55.995998 32.6292
2.13076 51.1964 32.555599
1.57783 52.3937 32.821201
1.11734 53.345798 32.9674
2.4412701 54.1721 32.953701
2.14766 53.297699 32.9132
-0.98494601 54.570599 32.614899
-0.15646 54.986801 32.8097
-0.61913699 55.7845 32.4963
2.91153 54.516399 32.785702
0.181335 53.306099 32.875702
0.53858298 54.193001 32.9618
0.88214201 55.118698 32.8717
2.21614 55.0205 32.847801
5.9266801 -0.99920601 -6.0293002
6.65376 -0.89859903 -5.51719
-0.31027699 0.166991 -11.9063
0.68401599 -0.56944901 -11.4043
5.40733 -1.84899 -6.28052
4.56041 0.192546 -7.1528001
3.67981 0.007181 -8.2879496
5.33988 -1.33296 -6.4868302
3.3422101 -1.90606 -8.4296904
-14.7674 42.9259 -4.9401102
-15.3818 43.417301 -7.7276201
-15.2873 43.1735 -5.8078399
-17.176201 43.8582 -4.8141098
-16.185699 43.191799 -6.5749998
-16.818899 43.514801 -5.37642
12.6922 -0.90041 -2.33342
11.6716 -1.01403 -3.57514
10.5022 -0.785133 -4.3896999
-5.1728401 -2.5608599 7.7186799
-4.2547002 -2.58097 6.8575702
-3.39219 -2.7983699 7.1953702
-6.8058701 -2.5513201 8.4480801
-2.3940401 -2.4918301 0.49014699
-1.72443 -2.7544999 -0.72240001
-7.8571401 -2.49351 8.1347504
-8.8692198 -2.44573 7.27491
-5.6527901 -2.28724 -1.07416
-5.20294 -2.1245 4.0391102
-4.9047298 -2.34797 6.1301999
-2.7602501 -2.35921 1.39341
-2.39676 -2.34483 3.40201
-7.6300101 -2.2364099 7.1656098
-7.71029 -1.97004 5.8778701
-8.0975199 -1.91532 4.2016301
-9.3283901 -2.1386499 3.48261
-1.66682 -2.3750899 3.56706
-5.5304098 -2.0573201 0.171885
-3.19045 -2.5220201 -0.32265401
-5.31742 -2.03667 1.92085
-3.9410501 -2.2379301 2.7762001
-2.3635001 -2.54969 5.1018901
-7.9215798 -2.0829301 0.94229603
-8.2461004 -1.98164 2.2737
-6.38732 -1.89863 0.89906198
-7.08919 -1.91166 1.04182
-6.4903498 -1.9924099 5.1286402
-6.4116998 -2.3447199 -1.25012
-4.8365202 -2.34061 -0.75640798
-12.9836 29.0616 -6.3599701
-11.8019 28.9002 -5.8955698
-20.219101 29.0319 -11.0784
-20.1455 29.1082 -12.3841
-20.0026 29.0026 -6.09552
-22.0744 29.668501 -10.7708
-8.8095598 27.719601 1.51878
-8.1912498 27.906601 0.189951
-19.1567 28.8489 -10.8854
-17.9468 28.631701 -11.7276
-22.892401 28.874599 -9.2000504
-5.36063 27.2761 -0.88029897
-2.0583701 26.940399 0.157943
-21.1705 29.411301 -11.2261
-4.8619599 27.185101 0.62686503
-6.4717302 27.5595 -0.094947003
-19.061001 29.130301 -4.2516999
-20.244499 28.9069 -9.4864302
-18.063801 28.8151 -10.7705
-3.77614 27.5973 3.39343
-5.35811 27.3465 3.6166401
-6.9600401 27.0847 3.99424
-20.5362 28.889299 -8.0460796
-18.826799 29.1366 -7.78901
-10.0586 28.128 0.42451799
-14.7891 29.180201 -8.0552597
-7.4744902 27.877501 -1.22912
-16.986401 29.256901 -7.9385099
-17.9291 28.9902 -9.65417
-16.297899 29.3564 -4.8081398
-17.597601 29.237 -3.52334
-13.02 28.7656 -1.13747
-11.5387 28.5035 -0.49312401
-4.29601 27.2577 2.08904
-3.02791 27.0201 0.68127102
-21.462799 28.7535 -8.1632204
-13.823 29.1374 -3.74489
-15.6255 29.2495 -3.3368499
-12.3718 29.002399 -4.7429399
-13.5367 29.131599 -5.0805802
-14.7058 29.270901 -5.6933999
-15.9456 29.3505 -6.5475998
-14.3466 29.0525 -2.21264
-10.9359 28.7773 -4.5591898
-1.7310899 27.2759 0.90397698
-23.3603 29.269199 -9.7903404
-24.162001 28.6506 -8.9716702
-12.3267 15.1858 -20.73
-13.2651 14.8777 -20.6807
-10.7674 13.6761 -20.5944
-10.2948 12.6476 -20.4305
-9.1694603 14.5238 -20.478001
-15.7388 15.7417 -20.448099
-17.0553 16.9202 -20.3325
-9.0875301 16.5688 -20.3647
-8.5630503 17.5259 -20.1007
-13.014 17.4478 -20.667999
-12.527 18.250799 -20.552601
-11.1142 18.9007 -20.2777
-10.598 17.6366 -20.452999
-15.5232 19.299101 -20.429399
-14.7295 18.567801 -20.5327
-10.7484 10.8465 -20.1043
-6.78128 13.5915 -19.8873
-17.0226 15.0727 -20.062901
-7.1436701 18.2309 -19.525101
-17.791 18.637699 -20.309099
-16.4508 18.1968 -20.4648
-18.8627 20.2663 -20.217899
-19.600401 20.114201 -20.1476
-21.4328 21.2103 -20.0233
-22.7523 24.141001 -20.144501
-22.441099 24.8435 -20.114599
-25.4942 25.876101 -19.806601
-24.3543 27.2363 -20.148899
-23.9231 25.9062 -20.1593
-26.6866 28.2852 -19.538
-23.907801 28.693501 -19.916901
-23.343201 28.995899 -19.6059
-24.4457 30.2237 -19.829901
-17.246099 13.1616 -19.5634
-16.0219 12.7437 -19.8375
-11.1999 20.5616 -19.7752
-17.0271 21.6022 -20.035999
-16.617901 20.857201 -20.1847
-19.256399 21.8407 -20.134399
-22.1765 20.475401 -19.6747
-20.6367 23.5639 -20.0159
-26.6791 29.7806 -19.5861
-25.6759 31.596201 -19.726
-10.9294 7.31636 -19.008499
-10.0374 6.7808299 -18.701099
-10.1623 8.95994 -19.5308
-9.2545795 9.5237799 -19.613701
-13.466 9.8628397 -19.670601
-5.6375399 14.4553 -19.5168
-4.83886 14.3473 -19.1404
-5.7207298 16.1273 -19.4494
-5.33847 16.8407 -19.1625
-4.3045802 17.2761 -18.507799
-16.833599 22.572701 -19.6954
-20.909 25.516899 -19.5334
-27.203699 30.8384 -19.020901
-23.917299 32.013401 -19.299999
-23.926901 33.574299 -18.982599
-14.6675 8.5682201 -19.021799
-13.7342 8.3294897 -19.157801
-5.5366101 11.2176 -19.0758
-18.7591 11.9354 -18.555401
-17.7593 11.4512 -18.8559
-21.424601 17.277901 -18.9625
-20.2959 16.453699 -19.230101
-22.4403 18.9519 -19.064699
-23.4328 20.273399 -19.0786
-23.1017 20.244301 -19.255301
-24.5926 22.9732 -19.410601
-14.0323 22.670601 -19.2507
-12.6101 22.228701 -19.2579
-22.2551 28.6716 -18.904301
-25.582701 33.035599 -19.345301
-24.565201 35.0429 -18.545401
-12.3136 6.3790102 -18.586599
-6.3088899 8.9521904 -18.678301
-20.2806 14.6915 -18.7099
-13.7433 23.663 -18.6031
-12.7901 23.881201 -18.2416
-17.679701 25.350901 -18.2236
-27.697399 26.7237 -18.1656
-27.1922 26.421101 -18.693001
-21.065701 27.191401 -18.6926
-22.555901 31.793501 -18.254101
-22.219999 31.523899 -17.804399
-15.5601 7.1995902 -18.217699
-6.6630902 19.843201 -18.6733
-7.3736501 21.125601 -18.272499
-9.5045099 21.872101 -18.715599
-25.046499 20.625999 -18.1224
-15.7757 25.2654 -17.785
-15.5964 24.6999 -18.230301
-26.6891 33.355301 -18.492901
-26.269501 33.253601 -18.902599
-26.9541 34.383202 -17.4667
-26.7061 35.277401 -16.973499
1.90004 55.083302 -18.195999
2.3008399 54.147999 -18.055599
3.1659701 55.878502 -18.1667
0.098040998 55.641602 -18.162901
2.8318601 57.392601 -18.2318
2.9864099 58.234798 -18.182199
0.84567702 58.3465 -18.2274
-13.1945 4.2883601 -17.381201
-6.3721399 7.08146 -17.930099
-5.5156002 7.6402702 -17.833799
-4.0401602 7.8028898 -17.180599
-3.5100501 7.4493599 -16.6812
-17.3431 9.3273096 -18.312599
-17.6738 8.5447397 -17.8412
-3.53984 13.3449 -18.314899
-26.8979 23.091999 -17.546101
-26.826799 24.2204 -18.2174
-19.278 26.676201 -17.6761
-19.196501 26.3517 -17.9555
-20.375999 27.4221 -17.852301
-22.8603 35.553699 -17.826799
-22.314301 35.5453 -17.443199
-1.74246 56.153 -17.962099
-1.64951 55.1404 -17.9177
-3.5703599 56.305599 -17.618401
-3.90624 59.643902 -17.4678
-3.7794399 60.781502 -17.3874
3.9015801 59.375801 -17.948601
4.7650199 59.682701 -17.743
3.3324399 61.6703 -17.684999
3.28601 60.7234 -17.8636
-2.7210901 61.858101 -17.452101
0.84878099 60.268398 -18.036699
1.7816401 60.208302 -18.0571
0.14274099 62.378502 -17.688299
-0.028502 61.286499 -17.8659
-16.070499 4.9510598 -16.9261
-15.6558 5.6448898 -17.452
-6.3909502 5.44701 -17.120399
-3.2181201 10.908 -17.7248
-21.4519 13.1586 -17.4667
-2.77913 16.465 -17.632799
-4.1371198 18.6793 -17.860701
-4.8498902 20.565901 -17.232901
-10.31 22.993999 -18.241501
-10.593 23.572901 -17.884001
-28.405701 28.115299 -17.4212
-21.1453 29.005899 -17.177401
-28.4002 30.630501 -17.4993
-22.1991 32.9067 -17.624701
-22.152599 34.139599 -17.504299
3.5576701 51.244801 -17.403099
3.96562 50.395699 -17.1416
-1.13139 50.988499 -17.2061
1.51151 51.495998 -17.5389
1.06841 52.4799 -17.7528
5.2189898 51.6978 -17.247499
6.1419201 51.226299 -16.928101
-2.1175799 53.127201 -17.5571
-2.6551399 52.149899 -17.264
5.9226599 53.4692 -17.3881
5.4910898 55.918598 -17.7174
6.3513498 55.503101 -17.464001
-6.2398601 55.796799 -16.855101
5.9927802 57.9314 -17.577801
6.3863802 58.9263 -17.406601
-2.1436901 63.972301 -17.1374
-3.1301799 63.637001 -17.051701
-9.4121304 4.9665298 -17.721701
-9.7607603 3.7943799 -17.101601
-7.9800401 3.99259 -16.8456
-14.7029 4.6192698 -17.225599
-5.9633999 4.3864799 -16.267099
-6.18679 3.5925701 -15.8473
-18.551701 8.2473097 -17.2171
-23.2411 13.751 -16.2917
-23.8827 14.5644 -16.0781
-1.97552 14.3334 -17.149599
-2.8457301 19.327299 -16.4314
-2.3783801 18.941401 -16.2118
-14.9641 25.8463 -16.9498
-13.8935 26.0138 -16.4389
-21.7614 30.4981 -17.2393
-22.296101 37.178398 -17.0348
7.65692 59.332802 -16.9788
8.7639198 59.1241 -16.606899
8.1741896 60.866501 -16.616501
-5.5848799 59.931599 -16.9867
4.3505001 63.3204 -17.124901
5.2570701 63.939301 -16.751301
-11.6225 3.7611001 -17.193199
-11.1058 2.65956 -16.5173
-18.473499 6.6327 -16.459
-18.8099 6.0707698 -15.9264
-3.1966 9.1205902 -17.189199
-2.4968801 9.5831099 -16.821301
-1.85946 17.726601 -16.3265
-6.92138 23.2162 -16.434999
-6.4291501 23.626301 -15.6859
-25.761499 36.871498 -16.4846
-22.4242 38.426498 -16.5909
-22.023701 39.510399 -15.9199
-24.120701 37.6408 -17.0315
-23.2446 39.189499 -16.089399
-23.085501 38.559601 -16.5795
4.0658998 49.055302 -16.690399
-5.7244802 53.565498 -16.769899
8.7066298 54.013699 -16.5676
-6.3385201 58.322601 -16.8421
-7.1206102 57.734798 -16.580799
1.2134 64.259201 -17.240299
3.8452699 65.559601 -16.5228
3.7028201 64.6259 -16.863001
-1.73839 65.819702 -16.639999
-0.950611 66.421097 -16.4797
0.71386701 66.941803 -16.3034
-17.3937 5.3182602 -16.4298
-20.618099 10.0785 -16.6905
-1.0403 13.9968 -16.3116
-24.8687 16.867901 -16.2974
-25.6294 16.845699 -15.3552
-27.470699 22.474001 -16.329901
-27.987301 22.845501 -15.6402
-20.390301 28.313 -16.725901
-28.7535 31.619101 -16.406799
-28.711201 32.368599 -15.9597
-28.153299 33.894901 -15.8092
-27.8673 33.797401 -16.555599
1.70884 47.4179 -16.068701
2.74473 47.6269 -16.180201
0.028388999 49.050201 -16.6735
-0.28785801 48.266602 -16.3235
-4.5815802 52.390499 -16.873501
-4.2090101 51.432499 -16.737
9.8965302 52.084202 -15.8468
10.3683 58.466301 -15.9992
7.8373098 62.245098 -16.4652
6.9113698 64.178001 -16.2181
-11.2456 0.76267898 -15.3254
-14.8747 2.06721 -15.7008
-15.5261 1.55287 -15.154
-7.5704899 2.93153 -16.0203
-7.2094698 2.3746901 -15.473
-3.24089 6.3473101 -15.8086
-21.496 8.8340902 -15.2869
-21.0753 9.0857096 -15.8127
-26.951599 19.345699 -14.9637
-26.962999 20.1444 -15.5325
-7.8758202 24.240801 -16.018299
-10.1483 24.5023 -16.880699
-11.6818 25.810499 -16.004299
-18.422899 27.012199 -16.613501
-21.3083 35.5196 -16.1693
-1.58271 47.762699 -15.9025
5.3520098 48.469398 -16.259001
5.8414502 47.794399 -15.8588
6.17554 49.352501 -16.3836
6.9031701 49.606201 -16.247601
-4.7382202 49.123299 -15.768
-8.6257896 52.487202 -15.4659
-7.7908201 52.242802 -15.7587
-9.3016005 56.055199 -15.6525
-10.1448 55.812599 -15.2422
-9.1982803 58.192799 -15.6957
-8.5392599 58.754799 -15.9567
-7.3384099 61.8438 -16.0938
-7.0831599 64.027397 -15.7378
-6.51407 64.626297 -15.8003
-5.0569 65.122704 -16.1649
-4.17978 65.050102 -16.441601
4.96807 66.925102 -15.7487
5.93332 67.332802 -15.3152
-4.7837901 66.591301 -15.7213
-4.1791801 67.295097 -15.5858
-2.6509199 67.882896 -15.6339
-2.49596 66.997704 -16.0658
-4.7965999 4.4559202 -15.6285
-4.3189001 4.1455798 -15.0771
-19.977699 6.3484502 -15.1679
-20.202999 7.31991 -15.5537
-0.138009 12.2321 -15.2136
0.038068 11.4712 -14.819
-1.07802 17.569799 -15.4628
-0.67764401 17.004 -15.1834
-16.122999 26.532499 -16.360701
-16.267401 26.9244 -15.7721
-28.997499 28.1297 -16.0674
-21.543301 32.962898 -15.9177
-21.4781 32.5452 -15.2786
-21.278299 33.929699 -15.3314
-21.073999 34.377701 -14.7612
5.9050999 46.3321 -15.1124
5.39537 45.681499 -14.8533
-1.4015599 46.4799 -15.2657
-10.082 54.271801 -15.1148
-9.7397404 53.497799 -15.1563
10.4024 54.788799 -15.9173
11.3319 54.379799 -15.4331
11.7514 56.487801 -15.3585
2.0510299 68.432404 -15.5223
-13.8894 0.78613001 -15.1503
-1.4028 9.2056904 -15.6506
-1.16768 8.4232798 -14.9894
0.019711001 10.1089 -14.3432
-0.642869 15.27 -15.7121
-0.28955501 15.5118 -15.1655
-4.37815 21.730801 -15.942
-5.2586598 23.4692 -14.9378
-28.6775 23.744499 -14.6575
-11.0364 26.493099 -14.7783
-29.2862 26.264601 -14.4122
-29.344601 27.243299 -14.5858
-19.906 28.388201 -15.6711
3.61865 46.34 -15.4613
8.3007402 48.833801 -15.5092
8.9481401 47.916199 -14.8927
10.0508 49.7714 -15.1472
-7.3203702 48.875801 -14.7111
10.3593 61.6096 -15.5573
11.2767 61.660801 -15.0747
10.02 63.189701 -15.3099
-6.1550102 68.072899 -14.5805
-5.8878498 67.385399 -15.0166
4.4871998 68.047096 -15.3438
4.7649102 68.773102 -14.9134
-2.2523601 69.526703 -14.8057
-1.62492 70.294899 -14.4171
-22.528601 10.0225 -14.9639
-22.3235 8.81668 -14.4335
0.45367399 12.6877 -14.3404
0.79695803 12.5637 -13.6426
0.32966799 14.1218 -14.4552
0.376901 14.9007 -14.1759
-2.59482 20.5023 -15.2338
-3.61062 22.433901 -14.4783
-15.8285 27.4692 -14.5755
-15.3041 27.684299 -13.9544
-21.4491 31.5467 -14.6103
-20.679701 36.936798 -15.3046
-21.019501 38.335701 -15.7462
-20.4349 39.524101 -15.0261
-20.779699 40.179901 -15.0829
-21.001499 40.7005 -14.9482
3.4277999 44.197498 -14.1571
2.4787099 43.880199 -13.9716
-3.22314 45.490398 -14.2261
-4.2142501 45.612 -13.98
-8.2260904 50.695301 -15.0922
-8.9526901 50.141899 -14.5256
12.5767 51.703201 -14.3376
10.9685 52.661301 -15.4349
11.2215 51.960899 -15.1708
-12.2401 56.827801 -14.0987
13.3178 56.910702 -14.5176
12.0189 59.334999 -15.1117
-10.2111 59.460701 -15.0939
-10.4825 60.357101 -14.8331
12.3382 60.457802 -14.7529
13.0397 61.2034 -14.1858
-9.8716803 61.9468 -14.886
10.2399 64.418404 -14.8059
7.99997 65.424896 -15.4024
-7.4132299 66.676399 -14.7015
7.6609902 67.265198 -14.7687
-16.814501 2.8419199 -15.3381
-16.941999 2.0028501 -14.7224
-1.65662 6.7537398 -14.4634
-23.4195 10.9531 -14.539
-23.239401 11.6917 -15.181
-0.89337802 18.6908 -14.4214
-1.52669 20.1124 -14.1467
-1.7653199 20.9953 -13.5647
-20.2974 28.986601 -14.8538
-29.3141 30.434401 -14.8059
-29.1595 30.743401 -15.4853
-23.009199 40.735401 -14.7733
-20.3445 42.1716 -14.0343
0.29789299 45.1479 -14.7033
0.52552599 44.136501 -14.0492
7.2179899 45.394199 -14.2208
7.8133101 44.616798 -13.5428
8.5923595 46.233898 -14.2178
9.5538998 46.213402 -13.8222
-5.9043002 47.1539 -14.3416
-7.1462102 46.120602 -13.1705
-8.1517296 46.3316 -12.8678
11.3248 49.567101 -14.4608
11.9371 49.2514 -14.0262
11.7676 65.527496 -13.5975
-8.6493397 65.2976 -14.6258
-8.3159599 64.717201 -14.9895
5.8594799 69.780502 -14.0367
6.7296901 70.136398 -13.5157
2.0867701 69.903297 -14.6957
2.82903 70.726898 -14.0838
0.263491 71.039597 -14.0461
-10.5352 -0.60091901 -14.3351
-10.7575 -1.30863 -13.8105
-7.0794101 0.579723 -14.1769
-7.1877899 -0.38993299 -13.5746
-3.96066 3.1465199 -14.0872
-3.94383 2.40516 -13.6679
-19.668501 4.5348701 -14.2891
-19.8538 3.9360099 -13.7009
-8.7408895 26.1866 -14.026
-8.6555405 25.7745 -14.6251
-18.736099 28.2918 -13.9636
-18.5809 28.3414 -13.5597
-21.0455 29.989901 -14.5745
-21.505899 31.308001 -13.5653
-28.048901 34.765701 -14.5739
-19.7104 39.308899 -14.2151
-1.17477 42.822201 -12.7163
13.6662 58.2579 -14.2733
14.2002 58.838299 -13.8741
-12.431 58.511799 -13.9213
-11.5631 58.675301 -14.419
-10.5512 63.374699 -14.1817
-9.6322699 63.729 -14.5975
-9.5790701 67.7911 -13.0049
-9.3816099 67.226799 -13.4175
-14.6506 -1.65409 -12.9629
-14.1015 -1.237 -13.6075
-8.7559099 -0.71882498 -13.8586
-8.1195202 -1.22324 -13.2679
-17.7083 1.49226 -13.8731
-18.497999 2.04301 -13.6389
-23.8701 10.4101 -13.6073
-24.3277 10.6057 -13.0956
-25.1982 12.048 -12.7659
-26.0198 14.9681 -13.4219
-26.0888 15.9697 -14.0181
-26.783501 15.7726 -12.4598
-27.171 16.565399 -12.1238
-27.684 18.7153 -12.624
-27.4335 18.893101 -13.5174
-20.872499 34.628201 -13.4811
-26.467501 37.605701 -13.8651
-23.9228 40.577 -13.9797
12.6753 48.349998 -13.2726
-11.0101 50.9128 -13.7156
-12.2626 51.960701 -13.3393
13.7867 51.803902 -13.5888
14.28 51.0961 -13.077
-12.371 53.328499 -13.6555
-11.1945 52.998199 -14.263
-13.6728 54.745998 -13.1057
-12.7565 54.946602 -13.6852
14.9459 55.948101 -13.4283
15.2539 55.220001 -13.1344
8.809 68.119003 -13.8876
8.2621498 69.263603 -13.4604
8.4450598 70.010399 -12.9008
-6.0357499 69.473 -13.7924
-4.3820701 71.074501 -13.2366
-3.7960899 70.374199 -13.919
5.0037398 70.646698 -13.7039
4.8223901 71.305397 -13.2834
-12.67 -1.70408 -13.4031
-12.0134 -2.0113001 -13.1018
-5.7955599 0.35958901 -13.4736
-5.2311502 -0.097965002 -13.0202
-4.29772 1.1239001 -13.2612
-4.94556 1.2611001 -13.5876
-2.8106501 3.5322199 -13.413
-22.390301 6.4000201 -12.5924
-20.6668 3.8541601 -12.766
-21.204399 5.15728 -13.1167
0.69177198 15.6941 -13.1172
0.97842997 15.5875 -12.2942
0.059695002 18.279301 -12.6873
-29.4168 26.112101 -13.0188
-29.433901 26.570601 -12.4938
-14.1289 27.909 -13.1024
-11.7433 27.5753 -12.9353
-17.525101 28.2342 -13.1525
-17.117399 27.9485 -13.8458
-19.835899 37.429798 -13.403
-19.870899 37.067799 -12.7561
-18.638901 40.059299 -12.7935
-21.642099 43.126801 -13.0889
-2.74335 44.152 -13.3874
-2.98315 43.471699 -12.7476
-20.362 43.9034 -12.9682
-20.301201 50.604099 -12.6595
-12.2602 50.500401 -12.8704
-13.7645 59.139099 -13.0669
-14.4841 61.044998 -12.3737
-14.4351 61.828602 -12.2412
-13.3843 63.264198 -12.5187
-9.0650702 69.107101 -12.5239
0.42409301 72.850998 -12.6928
-0.125734 72.342102 -13.0901
-16.183901 -1.73659 -12.0975
-17.4699 0.021686001 -12.9709
-17.825001 -0.394483 -12.3651
-1.37419 5.62011 -13.256
0.658261 9.7144299 -13.0777
0.86810398 9.1898899 -12.3125
-4.1558399 23.284201 -14.0772
-4.55794 23.77 -13.8305
-8.48841 26.623699 -12.8943
-7.9978499 26.6572 -12.2372
-17.542999 28.503401 -12.1251
-20.225901 29.187201 -12.9216
-29.301399 30.6511 -13.4901
-29.092699 31.356199 -12.9919
-28.5147 33.7663 -13.4841
-28.5266 33.458599 -12.8389
-20.357901 36.0742 -12.2332
-17.8255 40.735802 -10.9658
-17.463699 42.624699 -11.8903
4.1139002 42.504398 -12.8562
-18.604601 43.303398 -12.9261
-10.1492 47.886101 -12.8509
-10.0607 47.0765 -12.4434
-21.6089 48.768902 -11.9496
-20.484699 49.401299 -12.45
-20.0797 49.350899 -12.3947
-22.281 49.849602 -12.1381
-21.9895 50.099098 -12.2975
-20.2605 51.820801 -12.3464
-19.965 52.140999 -12.1722
15.3367 53.5317 -12.8184
15.8418 56.796501 -12.7922
15.5784 58.075401 -12.9606
15.7064 58.701801 -12.8065
-14.0752 64.188202 -11.7921
-12.7299 66.312202 -11.758
-11.6569 66.384697 -12.4185
11.1503 66.962898 -13.3096
11.1687 67.572998 -12.9953
-7.7170901 70.233498 -12.5156
-7.07162 70.535103 -12.5831
-11.332 -2.46364 -12.4308
-4.2994299 -0.95842803 -12.4247
-3.7499001 -1.46787 -12.1099
-3.8192799 -0.34979001 -12.6007
-3.3143899 0.092868999 -12.6696
-1.64246 -0.76879001 -12.2028
-1.4773999 0.82892698 -12.3276
-0.78314102 0.89040297 -12.0649
-1.58489 2.5101099 -12.2764
-28.777901 22.6192 -12.8339
-21.788401 31.902901 -12.6099
-19.2097 38.465099 -12.5296
-18.984699 38.707901 -11.7482
-17.477301 42.109299 -11.6661
-17.747101 41.557499 -11.8931
-23.289 42.331699 -11.8492
5.4019699 42.177601 -12.3606
5.9747801 41.438702 -11.5589
6.5754399 42.929798 -12.6835
7.6726298 43.004601 -12.3918
-19.612301 45.149101 -12.3838
-18.195601 45.866699 -12.1796
12.9607 46.525002 -12.2402
-12.1025 48.571899 -12.2427
-12.6017 49.256802 -12.2757
13.6976 49.190102 -12.9244
14.3156 49.3372 -12.5238
-21.696199 47.474098 -11.1068
-18.901501 48.789799 -12.0322
12.4296 67.603401 -12.2212
13.269 67.250099 -11.8617
-1.5215501 73.2976 -12.1301
-1.93734 72.819397 -12.4829
-8.1894798 -2.33816 -12.1922
-18.7166 -0.25294399 -11.7083
-20.055201 1.2350399 -11.4644
-20.0718 1.82739 -11.9149
-0.80564702 3.02033 -11.7245
-23.473101 8.2768698 -12.5839
1.2202801 11.4807 -12.4562
1.01337 10.9359 -12.8579
-4.6887798 24.5159 -12.7022
-29.3951 28.8724 -12.7513
-27.8908 34.352699 -11.8694
-27.2939 35.640301 -11.4204
-24.917 39.979301 -12.817
-7.5956302 44.1922 -11.4879
-6.9980302 44.744701 -12.2163
11.5913 45.1539 -12.2391
-17.803101 44.627602 -12.3034
-17.434099 44.976501 -12.0465
-23.0331 49.935101 -11.517
-18.883499 50.129601 -12.1324
16.3951 53.147099 -11.8879
-15.1043 58.467999 -12.3168
-15.955 58.751598 -11.7968
14.0683 64.867104 -12.3898
9.6493502 71.016502 -11.6348
5.4527302 72.540199 -12.1717
6.3341398 72.944 -11.56
-4.5318499 72.331902 -12.136
-2.80966 74.1427 -10.9966
-2.34231 74.556 -10.6823
1.86838 73.665398 -11.9128
2.90997 73.893799 -11.5755
-11.6076 -2.8682201 -11.1447
-12.4192 -2.9021299 -10.6889
-0.375321 5.8373699 -12.0618
-0.017716 5.3654199 -11.2424
-29.045799 23.4697 -11.0258
-29.1985 24.184601 -11.9967
-6.49435 26.191099 -11.4463
-28.8904 27.3622 -10.9295
-29.0695 27.4321 -11.2946
-13.9238 28.437 -11.4376
-14.7173 28.4228 -11.8366
-21.469999 33.934601 -12.0578
-26.451099 37.375401 -10.9414
-25.0951 39.898499 -10.6788
-25.509701 39.292702 -11.3656
11.8588 44.242199 -11.466
-9.4734097 44.427601 -10.7678
14.2299 46.5998 -11.3912
14.8437 46.473801 -10.8244
15.186 48.5723 -11.5464
14.711 47.8381 -11.6263
-16.4816 48.485298 -11.4158
-16.0306 48.6656 -11.2898
-13.0747 47.992699 -11.5008
-13.6063 47.9762 -11.2618
-15.6714 50.329399 -11.4295
-23.6695 50.946098 -10.9046
17.329901 51.3354 -10.5914
17.422199 50.551498 -10.26
-15.6716 51.858299 -11.633
-14.9056 51.4529 -11.8424
17.1686 54.3018 -11.4147
17.7075 54.477501 -10.9292
-15.2294 56.698502 -12.2735
-15.5531 55.960899 -12.0489
16.158701 59.707298 -12.2736
16.8162 60.023201 -11.6322
15.2877 60.928299 -12.7276
14.9224 61.650501 -12.822
14.5476 66.378502 -11.3711
-13.5026 66.992897 -10.8758
4.8241601 74.118797 -10.9532
4.6442099 73.424004 -11.6572
1.32415 74.534302 -11.1192
0.24023201 -0.94042897 -11.6343
0.25955099 4.2938199 -10.5019
-25.405399 10.8236 -11.4118
-26.5154 12.9659 -10.7301
-26.5686 13.8297 -11.3825
-28.4212 28.069599 -10.5939
-28.0292 28.506399 -10.3954
-16.2092 28.7353 -11.0198
3.00755 40.402 -10.8739
2.0318501 40.254101 -10.6761
0.49414399 41.5261 -11.8448
0.27871501 40.750198 -11.0039
-4.5240502 42.902699 -11.6939
-5.1494498 43.608898 -12.0691
-22.2418 43.6488 -11.7407
-22.4625 43.708099 -11.1692
-20.6628 46.860001 -11.572
-11.3295 45.956001 -11.0565
-14.6752 47.536098 -10.7995
16.370001 49.2481 -10.776
17.0865 49.152401 -10.0586
-17.414 51.1087 -11.5276
-18.169901 52.225101 -11.5423
-22.8806 52.396198 -11.114
-22.5207 52.627998 -11.3804
-19.058201 53.124001 -11.4575
-18.7689 53.451302 -11.2493
-17.1444 53.024899 -11.353
17.327101 56.411201 -11.4964
-16.424601 60.592701 -11.3047
-15.6647 60.623001 -11.7399
16.1744 63.1884 -11.3168
12.6215 68.860298 -11.3963
13.187 69.209602 -10.8278
11.9464 70.9039 -10.4893
11.825 70.142899 -11.0766
-8.3430099 70.931801 -11.5956
-3.22175 -2.3178999 -11.2999
-0.89736599 -2.7045801 -10.1165
1.51246 -1.25903 -10.6418
1.68794 -1.52556 -10.4272
1.1472501 0.91076303 -10.9011
1.6888 0.93139398 -10.3628
0.68531299 2.1115401 -10.8419
0.69691402 2.6301899 -10.6043
1.63447 11.763 -11.0817
0.138777 19.141399 -11.3146
0.41626301 19.087 -10.4206
-28.225201 19.592699 -11.3206
-2.95947 24.077299 -10.7691
-10.5418 27.6896 -11.7665
-9.9097404 27.329901 -12.3569
-27.4104 32.217999 -10.7994
-26.7943 34.878899 -10.6665
11.3872 42.721298 -10.4373
-16.8862 42.613602 -10.5902
-21.422501 45.747101 -11.0064
-16.294901 45.469501 -11.131
-15.8829 45.097599 -10.61
-15.4787 46.541698 -10.7575
-12.6606 46.770401 -10.9983
-22.6479 47.967499 -10.5691
-21.152901 54.062 -10.7357
-18.2593 54.479401 -10.9345
-17.9326 56.174999 -10.7991
-17.602699 56.909199 -10.9263
-17.457001 61.797699 -10.5598
-13.6442 68.111099 -10.0698
-13.4893 68.694702 -9.75282
-9.2316198 70.225899 -11.6136
-9.8930502 69.810898 -11.4832
9.3067503 72.331001 -10.7992
7.84268 73.361099 -10.6067
-5.58253 -2.77634 -10.6548
0.70133197 -2.1233001 -10.6559
-19.116301 -1.06872 -10.3514
-19.638 -0.83166802 -9.85394
-20.2714 0.61094099 -10.561
-20.6115 0.41850501 -9.7701397
0.890966 7.63978 -11.1599
0.42914999 7.2600298 -11.7921
-23.191299 5.6187401 -10.6888
1.45237 15.7556 -9.4667702
1.53204 15.8685 -8.7264795
1.01508 18.055901 -9.2846203
-24.3773 29.6905 -10.0146
-26.4825 31.554899 -10.4254
-23.4694 31.0956 -10.7876
-23.404499 31.6047 -10.8761
-24.864799 31.777399 -10.4221
-24.2374 32.348701 -10.5243
-26.1362 33.149899 -10.3741
-21.684401 34.666302 -11.1416
-22.149099 34.780201 -10.6536
-20.7596 36.108299 -11.0207
-21.0905 35.4702 -11.1849
-1.2924401 40.354198 -10.1926
9.2869301 40.446602 -9.0968103
8.62959 39.8993 -8.7377996
9.4929705 41.597 -10.2974
8.5494099 41.615601 -10.7768
-4.75734 41.439701 -10.1445
-15.778 44.145401 -9.8696299
-23.7421 49.097599 -10.1639
-23.7654 49.562901 -10.4175
-24.2656 51.493198 -9.3035097
-23.002501 53.101898 -10.303
18.1959 56.933899 -10.6435
18.6672 56.652901 -10.1151
18.135599 59.907299 -10.3357
18.761 59.512402 -9.7027102
-16.504499 64.2715 -10.3485
-15.7048 64.700798 -10.6135
-12.3415 69.7332 -9.7615995
-0.93235099 75.021797 -10.4645
-5.99754 -2.95556 -9.6009903
-6.95854 -2.9851601 -9.3415098
2.1049099 -0.427549 -10.2264
2.4351399 -0.013119 -9.8082304
1.53791 13.6279 -11.2745
1.5233099 14.3671 -10.9416
-1.4381 22.1945 -11.1998
-0.46232399 20.769899 -10.887
-0.624089 21.519199 -10.2131
-28.767799 23.1966 -9.6436396
-28.608 23.516701 -9.2322302
-28.791201 25.2812 -10.1541
-2.6965201 24.5746 -9.1103601
-2.1219499 24.472401 -8.2057199
-6.2780099 26.5728 -9.7802896
-26.802299 29.843 -10.2097
-23.5399 33.680901 -10.4562
-23.459101 34.3829 -10.2313
-20.573 37.1017 -10.1652
-20.789499 37.534302 -9.5387201
-19.276699 38.602299 -10.3305
-19.6598 37.991901 -10.4907
15.2489 45.5839 -9.9018803
-19.3708 56.609501 -10.1359
18.6511 58.0256 -10.045
19.233601 58.3582 -9.2908297
-19.608 62.868301 -9.6087904
-18.8958 61.883701 -9.9954596
-15.9685 67.179703 -9.2937498
14.3742 69.2276 -9.9855804
15.0598 68.887604 -9.6648502
-8.8481197 72.145203 -10.0147
-8.4135103 72.730003 -9.6366396
-6.9037299 73.380402 -9.8750496
-4.2225499 74.570702 -9.9786501
-13.8769 -2.92941 -9.7042799
-9.7994099 -2.9753799 -10.1852
-9.3908005 -3.0018499 -9.4669504
-17.5175 -2.0269599 -10.5746
-16.865 -2.2909 -10.632
-24.6308 7.4936199 -9.8085098
-25.131201 8.7244196 -10.0023
-25.591999 29.359301 -9.8166199
-24.7778 34.458401 -10.0394
-24.190901 35.068199 -9.8789501
-1.14974 39.419399 -9.0770597
-1.7962101 39.226501 -8.6149797
6.7179999 40.3008 -10.0909
6.9129801 39.7258 -9.3021498
-7.1499801 41.3381 -8.8800802
-6.2238202 41.2304 -9.2315397
13.9145 44.064499 -9.8374996
-22.402901 44.3736 -10.0881
18.5448 54.007801 -9.9545298
-21.0443 58.460701 -9.2776699
-21.617001 59.544498 -9.0253096
-21.537399 61.408901 -9.0616703
18.6497 61.120998 -9.4990396
19.1301 61.625099 -8.8118801
17.806999 62.3932 -10.0244
17.6236 63.3568 -9.8723898
15.9718 66.657898 -10.0622
15.9088 67.590302 -9.6671305
-12.6909 70.577797 -8.7145395
-6.57686 74.255501 -9.0144596
-24.922899 7.0996799 -8.6500502
1.45151 7.4721498 -9.6081696
-26.691099 12.1844 -9.43503
1.82497 14.0103 -9.1255503
-3.79952 25.561199 -8.4878197
-3.9730101 25.8776 -7.7097502
-27.857599 26.685101 -9.5007496
-10.3436 28.184401 -9.1599798
-23.6371 36.402401 -9.3896799
-25.458 36.428299 -9.8200598
12.3373 42.248699 -9.3108397
12.6149 41.874199 -8.6801996
-9.9183302 43.511101 -9.6701002
-12.8714 45.058998 -9.6664696
-22.620199 46.917099 -8.6818199
-24.085199 49.204399 -9.2018299
-23.9286 52.6917 -8.8382502
-23.635799 52.786499 -9.5349197
-17.008101 65.639 -9.6038704
17.121401 67.572197 -8.6044302
17.844 67.012001 -8.17381
14.4729 70.4245 -9.1802397
14.7761 70.966599 -8.6309299
13.3755 71.139702 -9.4446001
12.8959 71.722 -9.3294401
-16.466101 -2.78811 -8.99757
3.2655001 -0.15773501 -8.8732996
0.852139 3.39116 -10.0483
1.04716 3.82288 -9.6391201
-28.4711 19.4405 -8.3109703
-28.3398 18.552999 -8.8436899
-0.37675399 22.1796 -8.7165203
-7.6444201 27.3423 -8.7929497
-8.22437 27.669001 -7.9931402
-24.608601 28.2736 -8.6119003
-12.8101 28.9221 -7.9774699
-14.0214 29.0474 -8.5003204
-13.7291 28.8276 -9.5294199
-21.754101 37.953899 -8.77384
-22.5026 37.8545 -8.7234898
-24.341 38.4814 -8.9214201
-24.8556 39.292801 -9.34237
-19.011801 39.557201 -9.45436
-18.0196 40.6021 -9.8195601
-5.7867999 40.328701 -8.3207703
-6.1129899 39.999298 -7.6705298
-24.2876 40.731201 -9.2676497
-24.069901 40.878101 -8.9283504
-8.7147503 41.842201 -8.5515203
13.2824 42.885101 -9.2345505
13.9258 43.004002 -8.7973604
-11.9269 43.512699 -8.4745703
-14.5878 44.755402 -9.2790098
-23.743401 48.496498 -8.1148195
-24.448999 50.146999 -8.3357
18.367201 51.842201 -9.6521902
18.934999 51.944 -9.0148001
18.884501 55.025101 -9.7083797
19.240299 55.4645 -9.3098698
-22.660299 57.008301 -8.2222996
-23.304701 58.616402 -7.9629102
-22.5863 58.2061 -8.4106798
18.086 64.855003 -8.81709
18.6541 65.266098 -8.0484104
-19.431499 64.836403 -9.1962404
-20.240601 64.620903 -9.0532904
-19.4524 66.755096 -8.4877005
-18.5809 66.051903 -8.9710503
-15.7394 68.255898 -8.7011404
-15.0909 68.085999 -9.15903
-11.0144 72.218201 -8.2470598
-10.4092 72.044403 -8.9549198
-0.93458599 75.860901 -9.4352903
2.43646 75.885101 -9.4976397
3.28247 76.265297 -8.8701696
5.4038601 76.752197 -7.71911
6.62925 76.566101 -7.5950098
0.94781297 76.751198 -8.40446
-4.3315701 -2.9834599 -8.2530298
-4.7063098 -2.9861701 -7.4281802
-21.869499 1.75551 -9.0062799
-27.5879 14.0422 -8.2462702
-27.837799 15.0146 -8.2128
-28.2132 16.5096 -7.6550498
-28.0385 24.773199 -8.6862803
3.9946301 39.153198 -9.2499905
16.3724 45.4604 -8.6852102
16.689899 44.924301 -7.88202
-22.298901 63.513401 -8.5712605
-23.0431 63.2715 -8.2656698
-22.6227 65.752403 -8.0164099
-14.2109 70.921799 -7.08215
-13.9706 70.595802 -7.6595201
6.1598501 75.295097 -9.2860098
7.3492398 75.7034 -8.4068499
-16.9042 -2.8714399 -7.5041499
-17.3965 -2.85078 -6.69945
2.5820401 -2.20134 -8.9763098
-24.620501 5.6262202 -7.3796902
-24.882 5.60572 -6.44806
1.9765199 9.4564896 -8.8705797
-26.071301 27.150499 -8.3353796
-22.111601 28.575399 -7.60431
-21.5742 28.6887 -7.3847799
0.57347298 38.5504 -8.2386103
6.6239901 38.765099 -8.01686
-4.1117301 39.655399 -8.2224903
-17.3657 41.830399 -8.8781605
-22.739599 43.955002 -8.9463596
18.086 48.5163 -8.6979704
-21.879801 55.990501 -8.8813896
20.2796 58.0289 -7.8579798
20.717501 57.226398 -7.2202301
10.7935 74.026604 -8.6366596
11.5236 74.173698 -8.1580095
8.27841 74.622498 -9.21842
8.7116404 75.393997 -8.2268801
-4.1655598 75.757896 -8.3783598
-2.09533 76.7118 -7.8136001
1.55133 -2.9497499 -7.0795498
1.34841 -3.01367 -6.14291
-23.801901 3.70823 -6.7624998
-27.6693 13.0982 -6.6316199
-27.8687 13.4479 -5.82231
1.8469 14.8322 -7.5475602
1.70096 19.270201 -7.3693299
-0.92395997 23.336599 -8.0988703
-0.92089599 23.785 -7.3386598
-23.184601 39.6371 -8.1119499
-21.601299 39.290699 -8.0771303
-9.0867004 41.2285 -7.4728298
-9.5304003 41.044998 -6.8158002
-22.2651 41.9888 -7.20611
-22.3922 42.642101 -7.19454
-17.3769 42.361599 -7.7694702
-17.8312 42.453201 -7.1552601
-23.2187 42.050499 -8.0570402
-22.788799 42.9786 -7.72368
-12.2071 42.783798 -7.2726002
-12.6738 42.643101 -6.6656699
-22.3575 44.5005 -7.61484
17.5058 46.447498 -8.1285801
18.2693 46.655399 -7.3271799
-23.738199 54.091599 -7.1184602
20.1122 55.5797 -8.0987701
20.695999 55.211102 -7.1699901
19.728399 63.807999 -7.335
19.7335 64.766899 -6.9797702
-16.312401 69.257301 -7.6264601
15.7663 71.360603 -7.7818699
16.5758 71.133698 -7.43329
-11.3314 72.911598 -6.9845901
-11.0384 73.451599 -6.4024301
12.7503 73.700897 -7.9401698
10.371 75.045601 -7.8867302
10.2641 75.712799 -7.2687302
-13.3543 -2.9971199 -8.1911497
-0.37338099 -2.93522 -8.4522896
-0.55850202 -3.0067899 -7.4053998
-22.8554 2.42434 -7.54882
-22.137501 1.27145 -7.66259
1.83746 4.3525901 -8.1983204
-26.0847 9.0329199 -7.7343202
-26.4139 10.0165 -7.86239
2.2284999 12.0187 -7.6201401
2.3713901 10.9439 -7.08781
-27.410101 24.073 -6.9935198
-27.736 24.091801 -7.7057099
-7.8579602 40.410702 -7.14396
-7.31004 39.879002 -6.6661
-20.0375 40.521198 -7.77246
-20.673 40.477699 -7.5943499
-11.1774 41.839199 -6.6222701
-10.7497 41.225201 -5.9640799
15.7749 43.336399 -7.2946901
16.4069 43.507999 -6.7274899
-22.59 47.026798 -7.4042802
-22.678101 47.544899 -6.7607899
19.2395 49.436298 -7.7130299
19.7701 51.626499 -7.8360901
-24.214701 52.212502 -7.32693
-23.8794 55.187302 -6.31675
-25.540001 64.562599 -6.6956902
-24.7162 63.6982 -7.2981801
17.337799 69.124802 -7.7363
17.7915 69.686996 -7.19209
-15.6118 70.514603 -6.65205
-7.3191199 74.786301 -7.6693802
-6.97788 75.320999 -7.0475402
1.07214 77.475403 -7.2427902
1.63429 77.894402 -6.4580202
-1.92566 -3.00667 -6.6143398
-2.52091 -2.99456 -7.6066999
-21.749599 -0.0098590003 -6.5141501
-21.871901 -0.191745 -5.7135201
3.39572 2.05689 -7.51089
3.1888101 4.22647 -6.2745199
2.2721801 16.3899 -6.9869299
2.89712 18.1243 -6.1711302
-28.3186 22.1912 -7.8126602
-25.519899 26.642 -7.11027
-25.0779 26.6775 -6.35676
-0.095565997 37.2747 -5.9419098
-1.1472501 37.1805 -5.4280801
3.57797 37.760502 -7.1226902
10.6045 40.004601 -7.7081699
12.7159 40.815399 -7.2560101
14.7809 41.8797 -6.62637
-21.273399 43.0769 -6.54004
-20.937799 43.826401 -6.17274
-24.244499 50.292599 -7.1689301
-24.2556 57.419601 -6.6716499
-26.1353 63.365501 -6.24476
-25.319599 62.4963 -6.88413
-26.340799 67.718697 -5.6077199
-23.33 67.446701 -7.2160401
-21.6134 68.721298 -7.09762
-20.9636 68.060303 -7.5846601
-13.3095 72.926102 -4.96561
-12.7959 72.694702 -5.8681202
15.3945 72.9505 -7.2066202
15.5667 73.793503 -6.8115301
13.4746 74.507698 -7.0685101
-5.2084198 75.934601 -7.38025
-5.5525699 76.186401 -6.6054401
-1.10356 77.5457 -6.6505198
-0.44491801 77.440903 -7.07093
-15.0139 -2.9828501 -6.0664401
-15.5798 -2.97228 -6.8542199
-10.4922 -2.9934101 -7.4959402
-19.7003 -2.0499699 -6.9117699
-20.8813 -1.43072 -5.2459798
4.9752998 -0.25501299 -6.84237
5.1491699 1.28467 -6.0192099
2.0049 6.1482902 -7.3529902
2.5803699 11.5297 -6.1712499
2.2486899 13.1089 -6.6627498
2.17029 13.0501 -6.8924298
2.46293 14.2624 -6.4598598
-26.5235 24.938 -6.1222701
-26.3631 25.474001 -6.71489
-7.7230802 27.6744 -6.12007
-6.4847298 27.304001 -5.2673302
-19.402901 41.685398 -7.1585302
-19.2152 42.3097 -6.7164102
-23.4363 48.368401 -7.11128
-24.0639 51.826401 -6.4305801
-23.951401 55.8116 -6.3871198
-23.7409 56.026901 -6.7993698
-25.277399 60.612701 -6.6806598
-24.681801 60.030998 -7.1271601
10.9028 76.743103 -6.0386701
-19.0313 -2.4879899 -6.25455
3.63553 -2.5350599 -7.1307302
4.4418998 2.27108 -6.0705299
4.3597798 2.71415 -5.90481
-25.5175 6.39364 -5.2582898
-25.961 7.25666 -4.8757801
2.2664399 9.5621796 -7.5243502
2.4344001 9.01933 -6.67557
-26.3202 8.7330103 -6.2702599
-26.5823 9.0048199 -5.3684402
-28.290899 15.3025 -5.10078
-28.2565 15.5745 -6.1297898
2.69575 16.6528 -6.4941602
3.0046501 16.525299 -6.16044
1.74626 20.652901 -6.7933998
2.2469001 21.136499 -5.9389801
0.98755401 22.068001 -6.7125602
1.57025 21.874201 -6.17308
-8.6853704 28.135099 -4.5196199
-8.6166401 28.1667 -3.3662901
8.0070896 38.1106 -6.26612
8.4003401 37.5741 -5.0777502
-3.0850201 38.264198 -6.52314
-3.0426199 37.7859 -5.7002201
-19.385599 43.219398 -6.0247302
-20.7712 44.944302 -5.6644201
-22.077999 46.0728 -6.6792798
-22.2181 46.1614 -7.0176401
20.552099 53.032902 -7.0630898
21.0385 53.523701 -6.4014201
19.9645 62.173199 -7.5618801
20.4468 62.189301 -6.8495202
-25.6322 68.8731 -5.6536498
19.054501 69.567497 -6.3354301
19.5228 70.824898 -5.95087
20.1173 71.149101 -5.6508002
-21.9202 70.622704 -5.7931499
-22.208799 70.121002 -6.1089401
-20.815001 71.068497 -5.51443
-17.8748 70.627899 -5.9851499
-16.9942 70.380699 -6.34622
-14.322 71.658096 -6.0228801
-13.7041 71.907501 -6.1951399
19.365499 72.369301 -5.9827399
-9.6567001 74.529503 -5.8818302
-8.98878 74.410202 -6.7769799
18.628901 73.779701 -6.0774899
18.992901 75.0532 -5.7572198
16.796499 74.830002 -6.2459302
16.6152 76.6623 -5.6990299
13.1194 76.742104 -5.7272201
12.9603 75.9468 -6.2676902
-1.44066 78.114799 -5.2569599
-1.10269 78.535103 -4.3878999
6.59549 77.653 -6.0936298
7.7735901 77.983299 -5.2953
5.4068098 -2.3433199 -5.8312998
5.8961201 -2.2855799 -5.4714899
2.4075301 7.0483899 -6.4250498
2.76828 12.9631 -5.90517
-3.24122 25.874399 -6.04074
14.049 40.672199 -5.7357798
13.6144 40.800301 -6.39888
17.1623 43.0667 -5.1743698
17.264999 42.5411 -4.3249698
-13.7284 42.632099 -5.6391201
-21.482401 46.587601 -5.4797602
21.246901 58.7173 -6.2386098
-25.2125 58.781799 -6.1603999
20.297001 65.713501 -6.0058899
20.7892 65.7239 -5.4250302
20.6556 67.691399 -5.3515501
20.492001 76.412003 -5.0388498
21.4827 76.380096 -4.6817002
4.6754298 78.032303 -5.90449
4.2954998 78.338997 -5.3589501
8.2055197 -0.94111502 -4.9636998
10.1467 -0.37458199 -4.64887
3.7617199 15.3252 -5.3580499
1.12659 23.0166 -5.5399699
0.244449 23.5504 -5.93361
-0.25441399 24.0425 -5.8471198
-26.6957 23.641899 -2.7650399
-25.733299 25.180201 -3.80756
-4.42027 26.615499 -4.5473199
-21.992399 28.451 -5.9948401
10.6464 38.695999 -5.5399299
9.8547297 38.1157 -5.0693698
20.5471 46.798199 -3.9384699
20.7262 49.3866 -5.5135698
-23.345301 49.414902 -6.0000701
-22.608601 49.358799 -5.1308298
21.7367 53.1409 -5.15131
21.2782 61.365501 -5.6925101
21.6768 60.3671 -5.17026
-27.2712 62.619301 -4.9397302
21.5413 64.7948 -4.5788999
21.8092 64.249298 -4.25177
-26.274401 70.590302 -4.51758
14.4365 77.687401 -5.18859
-10.7109 -2.9498799 -5.1622701
-11.6581 -2.9257801 -3.6590099
-6.0830798 -2.9586101 -6.0532398
9.4881496 0.70760202 -4.7269602
9.9630804 1.06463 -4.4783902
3.9073801 6.0907302 -4.8105502
3.2554801 10.267 -5.0873799
-27.2115 10.3622 -4.2836599
-27.311399 11.0173 -5.1691599
4.6575499 15.6657 -4.5751801
5.2781801 15.2148 -4.0053401
3.4105 19.6446 -5.3871899
4.0145102 19.620399 -4.8579998
0.81467599 36.326698 -4.40271
0.52974701 35.7509 -3.2763901
-7.7887902 38.266602 -3.15488
-6.97088 38.9231 -5.2101698
-7.8545699 39.180901 -4.9487901
19.3391 46.4324 -5.6124201
19.6579 46.061901 -4.7564201
-20.0109 45.694901 -4.7507
-24.691299 56.081799 -5.1904101
-25.1493 71.963097 -4.1371298
-24.430599 71.238197 -4.88063
21.293501 73.510696 -5.06496
21.937099 73.291901 -4.7118001
21.9006 74.899803 -4.6860099
22.5515 75.519798 -4.2876301
-9.7702103 75.081001 -4.6129899
-9.1832705 75.632202 -4.0296102
9.9142103 78.196297 -4.58392
15.1187 79.252602 -4.33112
16.094101 80.076897 -3.9619999
-9.1869602 -2.94385 -3.7121201
7.4307799 -2.2985499 -4.45048
7.7804098 -2.6258099 -3.7282
9.4040298 -1.7993 -4.2972598
8.1411695 2.0969999 -4.60112
8.4577398 1.4897799 -4.75459
3.33938 8.5973797 -4.8190498
4.0780101 12.5882 -4.7340298
5.05722 17.0688 -4.3240199
4.9689698 18.885401 -4.2330098
-28.415001 18.949699 -4.7459698
-28.260099 19.565201 -3.8083899
-28.1728 21.3169 -5.8737102
-27.9879 21.0793 -4.15169
-27.494499 21.808399 -2.4196501
-27.420601 22.496099 -3.65007
3.3062601 20.615801 -5.1311898
3.3987 21.1978 -4.7497001
6.6515198 36.854198 -4.6654701
7.5938301 36.784599 -4.0674901
-4.09096 37.412399 -4.4043102
-10.3156 39.857101 -3.6452401
-10.3052 40.211102 -4.4668498
-17.3139 44.480701 -3.4598701
-18.264999 44.973499 -4.0210299
21.8496 50.671902 -4.1894398
21.463699 50.4688 -4.7982502
-25.983101 58.262402 -4.6513901
-25.663099 58.358299 -5.2692299
-26.974199 59.028301 -3.43733
-27.5616 59.840401 -2.97965
21.3351 71.686203 -5.0015302
22.194 71.835999 -4.4879899
-5.36725 76.972099 -5.0179901
-4.8211999 77.567101 -4.0552702
21.203699 78.287102 -4.3320999
21.9958 78.897202 -3.8552201
5.3924699 78.946198 -3.8575799
6.81422 79.262497 -2.9679301
15.2047 80.488197 -3.4245
14.3324 79.7995 -3.7228899
-17.4018 -2.90676 -3.8187699
-2.6403301 -2.95386 -4.69701
-3.8489299 -2.8801501 -4.1280799
11.3655 -1.94995 -3.3359001
11.1911 1.03696 -3.82815
11.8248 0.66850799 -3.4282999
8.2991304 3.17398 -3.9869499
8.7835703 3.58867 -3.5171299
5.6307702 4.6673698 -4.3689198
5.8529301 5.2205801 -4.06919
-0.806463 25.1576 -4.35006
4.8396301 36.3241 -4.3259501
14.239 39.973 -4.34061
18.414301 43.875702 -4.29807
19.763399 45.2883 -3.70555
-18.866699 45.912201 -3.38708
-19.8981 47.033401 -3.5624499
-22.222601 49.953899 -4.2729201
-23.966101 53.8713 -3.7641301
22.698299 57.322701 -3.47102
21.771601 62.5051 -4.5781298
22.1525 62.743999 -3.86712
-28.302999 66.9217 -4.12708
21.6597 67.506798 -4.4468598
-17.128401 71.741997 -4.7755198
-16.3913 72.033798 -4.4847002
-15.6122 71.458 -5.4959502
-15.1001 71.471199 -5.74122
-22.063299 72.304199 -4.30337
-6.7601399 76.778198 -4.0538702
-7.4053798 76.699501 -3.5134699
-3.4176099 78.3256 -3.35197
-2.9047999 78.045197 -4.5032601
3.62029 79.565804 -2.3000801
3.6746299 79.259903 -3.2011399
18.592501 79.335999 -4.51893
20.5007 79.389801 -4.20399
20.8237 80.685799 -3.59903
18.0972 81.074402 -3.5848801
0.54764402 -3.0285499 -1.41325
3.45209 -3.0368099 -3.95069
3.3619101 -3.07816 -2.9505701
-15.0555 -2.9558001 -4.2862601
-5.4706001 -2.9067199 -4.7023501
-5.6936202 -2.84392 -3.76823
-23.9533 2.92031 -4.13978
-24.3197 3.41008 -3.2764201
4.5541501 7.6556201 -4.15487
4.8411198 11.8252 -3.9649
5.2402701 11.1893 -3.59254
4.1661501 21.9615 -3.62464
4.90098 22.007099 -3.0433199
2.8199401 35.9519 -3.9030399
3.52823 35.546299 -3.15218
12.0287 38.631001 -4.1985402
12.4945 38.422699 -3.3023
-13.6193 42.043201 -3.74121
-13.4848 41.784801 -3.0287499
-20.664499 48.1562 -3.5202
-28.199699 61.486301 -3.0237501
-28.4175 64.725304 -3.9284999
-28.4981 65.6493 -3.90237
21.946199 65.531998 -4.0202498
22.3041 65.813698 -3.6070099
22.487101 68.570503 -3.8724999
23.108601 71.444504 -3.83233
-17.669001 73.093399 -2.6433101
-17.7717 72.607697 -3.5234001
-13.845 73.572899 -3.0976701
0.0063789999 79.107903 -3.2406499
-21.3319 -1.2334501 -3.3770399
11.3874 1.9973201 -3.1223199
11.7057 2.2822101 -2.54532
7.1891398 4.2080302 -3.85309
6.9317999 5.0639901 -3.5822401
5.4126401 13.1087 -3.6410301
5.9355402 13.5557 -3.2581201
-28.425301 16.378099 -3.21187
-28.3615 15.4918 -2.86075
6.0275898 19.2024 -3.2767601
6.6633701 18.948299 -2.8004
-4.1626201 26.7335 -2.9311399
-3.5845001 26.6632 -2.16786
-24.128 27.059601 -4.9580402
-23.4928 27.343599 -4.2160301
-22.186399 27.977501 -3.70961
-6.9018202 27.677799 -2.4584
-7.6629801 27.9217 -1.99814
-10.1879 28.6141 -4.3088799
8.1502104 36.083199 -2.48926
15.4859 40.329399 -3.3703599
15.937 40.270901 -2.6029799
22.350401 50.3908 -2.97978
22.5373 49.922501 -2.2197299
-22.927299 52.097801 -3.03408
-23.1646 52.4105 -2.48013
-23.937 53.345299 -1.803
22.796301 54.1143 -3.07265
-28.423 68.2146 -3.8438399
-20.5832 73.2202 -2.9810901
-19.6991 72.8172 -3.4411199
-24.739799 72.936798 -3.3718801
-12.1628 74.710197 -2.3532801
-11.6087 74.613701 -3.3694401
23.957701 75.889198 -3.4040401
10.5115 78.951401 -3.53
11.2696 79.354103 -3.07899
12.7408 79.8983 -2.94872
5.9725699 -2.97684 -3.2081699
7.2525301 -2.95608 -2.7615399
-6.6960602 -2.71401 -2.40307
-2.4136901 -2.9118099 -3.3290501
-22.475 0.18421 -3.4099801
10.0372 3.57289 -2.76545
10.3666 2.94154 -3.1282499
7.2253299 6.19839 -2.9333
-25.268 5.1679301 -2.75089
-25.292801 5.4310699 -3.7234499
6.4525599 7.8659801 -2.96805
4.9767399 9.3559198 -3.7736101
5.5756698 9.5138998 -3.3599899
-28.23 17.562599 -1.05934
-28.370001 17.907 -2.5564899
6.00807 20.520901 -2.8880601
6.2552199 21.126699 -2.4685299
1.76879 24.026699 -3.6401501
2.24157 24.181801 -3.1088099
3.50491 23.2124 -3.17768
3.3951099 23.8787 -2.6841199
0.80318499 24.8234 -3.3627701
-0.177764 25.733601 -2.4774401
0.244233 25.9403 -1.89088
-24.671301 26.0951 -2.9348099
-24.5996 26.379299 -3.81915
12.4171 37.599701 -1.68557
11.753 36.984299 -1.1692801
17.1094 41.629601 -3.1788099
16.4729 41.2953 -3.6098199
-25.156799 55.466 -2.9614301
-29.128 64.737701 -2.8617101
-29.561199 65.2565 -2.19871
24.3155 72.393303 -2.9851999
24.879601 72.272301 -2.45135
-27.3818 72.212898 -2.9524701
-27.604 71.527 -3.22859
25.262899 74.821899 -2.3893199
15.2679 81.892502 -2.0323
18.5194 82.473602 -2.69208
-23.3398 1.60558 -3.1969199
-23.128599 1.13197 -2.31457
8.0958796 6.5158701 -2.12551
8.52038 6.5330901 -1.6504101
7.1200299 17.7628 -2.5517001
6.5465398 17.6838 -3.06493
-2.14573 26.4928 -1.45035
-1.6999201 26.2318 -2.1110699
-11.1061 40.0149 -2.7135401
-21.538601 49.952801 -2.7202101
-21.552999 50.049099 -1.98044
22.8568 62.566898 -2.53545
23.1014 65.692703 -2.59658
25.250299 71.028503 -1.77344
25.1182 69.9487 -1.60095
-29.0079 68.720901 -3.00983
-29.268801 69.517403 -2.4758
-29.144501 71.167198 -2.0536499
24.449301 77.184196 -2.87221
23.590099 78.297897 -3.19048
