# .PCD v0.7 - Point Cloud Data file format
VERSION 0.7
FIELDS x y z
SIZE 4 4 4
TYPE F F F
COUNT 1 1 1
WIDTH 998
HEIGHT 1
VIEWPOINT 0 0 0 1 0 0 0
POINTS 998
DATA ascii
-22.3468 45.729 -8.1919003
-16.185699 43.191799 -6.5749998
-5.4530501 -2.3482599 18.4942
15.916438 72.606712 17.230299
-12.435034 39.997581 1.3136261
-15.173299 27.591272 3.1405499
-14.633373 42.252274 -0.83774102
-4.0963759 79.327042 11.327969
-0.47666201 8.0438566 -13.860273
-20.382751 36.856236 -10.785895
-27.590513 58.15485 5.2722511
-4.0801182 0.136935 20.187885
20.701998 66.013176 16.962711
-4.9061799 37.341621 21.34539
4.8770289 76.539795 -8.1811914
-9.8370533 -2.9488111 -1.032964
-10.362956 64.029861 -14.178186
12.046057 -1.164346 -3.180764
-11.08105 75.066437 -3.143157
7.5318542 38.062458 23.559404
-4.0171142 78.284187 -2.982091
-7.7982292 41.192596 -8.3794975
-26.515549 75.253281 2.6546609
2.44295 -3.0170369 -5.4162941
-2.7645099 38.134716 -8.5247784
-29.667484 73.854919 0.47228801
20.345295 74.722351 7.0603909
5.6300101 22.581409 -2.2250969
18.093136 40.229954 2.6785519
-14.020137 10.707156 -19.8528
-27.935791 17.486155 -10.290091
10.361418 65.166206 25.171965
23.601267 47.910126 9.0914927
-16.486765 43.096306 7.6440072
-11.931816 50.476223 21.241814
-18.891661 -2.1544621 -8.5167351
-29.334021 26.510565 -14.416094
2.7060771 1.0581549 -9.0715818
-1.401777 21.055464 -12.938311
14.189678 54.656666 24.757275
4.3038712 16.003965 21.129456
-17.024128 42.151924 -10.193806
-24.58783 18.946512 6.9048882
-25.211626 34.85247 -18.52356
3.1075349 78.028618 -6.2427039
-28.56596 18.042015 -4.9119482
-5.101419 -2.98297 17.278034
-7.8303289 63.674786 25.713104
-3.980685 -2.2259591 2.549618
0.38139799 61.267891 -17.928396
-28.336931 15.242678 -1.637145
-18.339441 42.341248 -12.851092
-19.355331 10.445764 12.161585
15.660398 42.826363 -6.8858099
-0.113667 1.500567 19.127438
-7.8577862 45.405079 27.474888
-27.682411 15.860195 3.567261
-9.911232 42.034351 23.20949
1.602205 1.470835 17.498564
9.1891813 24.069059 0.31705999
1.0486439 35.161144 -2.3242149
-10.352001 -2.724906 -12.287012
-25.091888 16.585644 7.2687249
-24.711596 7.1572738 6.3622522
-19.100346 20.982718 -20.180014
-15.348157 43.172459 -5.7054272
-14.732545 43.333607 -7.100492
-5.9276018 -2.4062669 7.480763
-3.761301 25.751942 16.508469
18.280031 79.394554 -4.5929818
-2.5410841 -2.814769 18.355209
-15.680212 16.09889 11.627302
-14.608877 56.489426 20.229935
-28.110638 18.00466 -0.27952099
-5.6708679 47.036934 29.842703
-4.4539218 32.71994 9.3645983
-28.201262 34.615662 -12.889698
8.1182928 79.832741 -1.443743
-22.678759 75.247955 1.679309
-23.481762 39.935963 -8.1812429
25.395454 68.747536 -0.74002898
4.7752128 33.83849 -0.70078599
0.231645 -1.2947479 -11.54617
22.51759 54.701511 19.926331
-19.705479 47.610661 4.7258592
-14.919639 2.212297 15.681399
-29.653481 62.153053 -0.106462
-26.985392 69.394325 -5.1188121
6.6066408 54.759422 -17.404621
-14.694503 28.57332 -11.402127
-1.263509 51.238487 -17.295555
-22.637753 74.731682 -0.78812402
-3.3309851 30.734858 13.817502
12.978904 23.345455 4.177155
-21.92882 44.469093 -6.80053
23.249262 85.305328 6.7202892
-26.125132 38.343769 -11.279037
-21.144644 25.365978 4.2279549
-2.9154329 35.111572 17.797832
3.299026 5.6473789 14.969047
14.456553 36.70491 11.51632
10.365398 48.700478 30.343884
3.980535 26.271994 -0.73242098
9.7138233 12.550824 1.182532
0.641298 -2.212806 -10.590109
-27.323589 59.173935 5.4810352
-8.4894953 1.410854 -15.30769
-3.8158829 78.857491 13.912237
9.7302494 74.886475 20.451469
6.5867782 27.146435 20.902117
9.2305174 34.568844 0.37175301
-20.439756 29.278446 -12.392125
1.702759 17.182613 -7.8173661
-22.034727 66.356544 -8.0835323
-14.147249 74.947456 2.2240169
21.82169 43.859268 7.0518289
10.572824 17.23176 18.135645
23.301649 48.547314 1.636449
-15.754666 1.350088 -14.965559
10.109487 32.836063 16.163273
12.282501 32.371861 6.9909248
-28.303631 16.359056 -7.1002569
2.3649409 4.0595908 15.905393
-26.146154 8.1812677 -6.2961831
-1.693862 26.868179 -0.15743899
-4.0268931 31.515108 10.271732
-26.173349 37.908306 -14.465194
-16.720259 1.5797859 14.459515
9.6802454 40.435036 25.550062
1.949122 63.990002 -17.349377
-6.971941 55.638165 -16.648199
3.577096 3.92589 14.508097
22.699043 78.968384 -3.546982
16.76033 51.473911 -11.213516
-18.058514 40.64566 -9.5800991
-4.6439981 33.3922 11.80618
10.97922 67.498352 24.610296
22.679358 75.839134 6.7032709
23.838894 55.34668 -0.231365
-18.191603 -2.6293991 4.387754
-12.017607 21.099262 10.361566
-23.921125 26.124256 -0.60132498
12.612795 34.8265 12.60699
-7.6599488 78.412071 4.2039471
15.337612 39.684238 18.001011
-23.575132 40.725937 -14.314849
-12.124968 21.469278 -19.592155
-23.324533 51.653297 2.3185799
-14.640478 6.3081179 12.885016
11.319261 43.541348 27.35368
-7.6169238 2.652247 16.675941
24.576786 87.53228 5.0601268
3.6166959 -3.0341909 7.823359
-8.2004023 -2.200834 0.82145703
-25.179016 59.789181 -6.587564
-6.920752 48.444103 28.786938
0.84684902 16.269129 21.174191
-23.153994 32.387604 -10.972992
-16.699509 42.653282 -8.5412302
12.188359 82.389267 4.249474
-22.137077 67.7062 4.4103899
-5.5223961 72.374031 -11.757528
-5.1156292 77.326164 16.584642
-24.283417 3.6502719 -4.7541151
-13.81617 29.09116 -8.418932
3.0274391 19.249516 -5.8490939
-8.4511108 77.561874 12.398749
7.086164 0.86638802 -5.217608
-12.725485 2.7851701 -16.630383
-24.977804 75.400322 0.51384002
-2.0532689 48.576523 31.702307
5.872797 -2.7539639 -4.503871
-27.726597 35.726715 -13.716024
-0.629089 30.846069 2.2651241
-1.62026 30.112295 3.168463
3.239186 41.611034 28.718529
-17.026175 54.318226 -11.288966
5.5896349 48.619431 -16.326164
7.1008892 12.03559 -2.141005
-8.0194254 51.820766 25.843145
0.54937702 69.730202 25.804274
-4.0370359 49.620216 31.156525
1.149044 54.936741 -18.218363
9.1146336 4.098073 7.1165919
23.182381 46.966431 5.2224121
-15.790182 43.678596 -9.3203983
18.030256 75.420937 7.8917408
-15.043886 53.037296 -12.06446
5.9507108 -2.592665 7.8423762
-21.94833 44.953152 -10.557609
12.804228 33.973721 7.2011461
-19.055174 45.040714 -4.5721769
-0.68816799 57.387516 31.475363
24.634418 80.771317 -1.864655
10.908187 11.773465 6.5156641
-8.9145765 24.031855 9.9472055
15.693609 83.641769 8.1348057
-24.259386 49.339172 -8.7892313
-2.481431 44.607689 30.169439
9.5716887 7.6323209 1.2758189
-22.95233 33.28215 -18.450533
-17.385145 58.144405 -11.041149
9.9141903 7.0718608 4.664989
0.72058302 18.822023 -9.7469263
-9.0839853 7.4365349 12.934473
-5.0826631 34.461395 3.1525049
7.3494468 32.173866 18.529572
-9.8107014 0.21190099 16.431368
-22.101826 58.21785 7.2034221
-20.263908 3.972888 10.055642
-29.975288 73.687302 1.614554
-19.550032 37.871006 -12.923879
-7.3280668 24.250624 -15.719569
16.00909 74.265976 -6.5580058
8.3244658 9.143898 -0.82401597
1.617063 66.655197 27.0068
-26.891821 20.88674 1.507941
12.823332 36.491619 15.183649
23.036446 61.883797 -2.1137531
12.547487 32.419605 9.228056
-19.815651 27.260761 -17.454004
-15.185599 70.391319 -7.0157132
-21.330019 75.005577 3.180042
-2.7115631 77.719772 17.232542
3.245136 67.180824 -16.013918
21.031931 48.459476 -4.5515881
-7.6280661 16.339806 -20.122925
-11.571558 6.6385489 -18.80331
-8.6806717 44.536674 -11.31026
-11.110342 10.488648 -20.078749
-23.564342 8.6403856 8.6421366
16.822824 46.627892 24.638247
23.950838 50.079475 11.614878
-17.099581 73.245529 6.847158
-9.0192909 -2.6785481 8.5945492
-31.443838 68.808868 1.572818
26.322292 80.419395 -0.50699103
20.267677 43.187916 0.823246
-1.228719 44.73843 -14.27027
-12.002105 59.46632 22.842299
-23.774265 3.137332 3.2790909
19.466843 69.88694 -6.0438609
9.7079172 -2.775116 -2.696172
11.023442 29.976471 3.848809
24.61208 86.525208 6.0041318
-9.3210068 53.192482 -15.350548
-18.072374 66.148781 14.016138
-15.200929 46.029667 -10.428069
-1.798605 37.852139 24.054035
23.259979 65.220787 12.376732
-24.331097 41.166695 -10.96081
14.415937 77.725739 10.100657
-5.4148288 79.217766 9.1159554
-29.507696 27.594328 -12.913049
18.353161 57.424377 21.808599
19.319914 83.321091 -2.1825669
21.576517 74.978065 -4.9094868
-22.192245 32.760906 -17.600046
17.853031 47.954536 -8.751996
21.501163 87.390091 2.4222651
23.48159 88.133392 3.9828169
-2.2276771 19.313751 -15.868757
-9.5580559 72.342094 -9.343318
-5.1750288 -2.662118 -2.604183
-18.676811 -0.94319898 10.021594
-29.578609 72.275894 -1.067222
15.552219 65.510445 -11.003109
22.751448 56.351505 -3.5500231
-15.816117 47.636631 -11.142512
-24.480999 50.56649 -7.7864432
-9.6440907 1.990714 16.22057
-21.092327 45.78064 -5.5054498
-0.114173 67.687645 -16.049711
-16.780712 55.793106 18.527874
-24.293339 28.341038 -8.5126314
-19.38789 74.581917 2.721483
-22.576668 26.034016 1.860502
-18.955477 71.104897 6.809361
23.772577 64.420372 -1.115615
-18.63088 2.92944 11.643405
-0.86839199 6.910615 16.991423
8.3954515 7.3744988 -1.381343
-14.453512 72.235893 -5.0714889
-27.162704 9.0661278 -0.80761099
17.894211 45.351608 -6.8236432
-10.859185 55.89798 22.085983
-20.744423 28.590935 -16.96553
13.131381 -0.83767998 -1.700745
14.73891 36.636734 8.448741
-3.697685 29.680225 12.681143
-11.591253 18.723429 11.492911
1.4293489 79.472427 -2.692055
-21.871361 18.814238 -19.280905
10.35707 19.653723 19.458044
12.496368 2.2964621 -1.21382
5.9316788 39.394981 26.294205
-19.273375 66.754463 8.6181049
0.90618902 14.646373 -13.21736
-26.562992 33.365257 -18.654198
-23.137632 52.908329 -10.450773
-30.559631 72.649994 0.88187099
-1.694106 79.316704 -1.905134
1.39248 31.558224 1.099316
11.274487 33.593121 14.455618
3.3655591 32.373356 0.294337
23.268623 62.979698 13.764338
-21.064459 54.451809 10.140245
12.025787 33.455261 5.1317821
-4.4995489 54.191082 30.341431
12.395541 33.54475 11.645699
-5.7880731 13.255054 -19.596691
-25.385311 24.232561 0.53089601
-8.7574606 3.438314 15.625114
-29.211372 29.747175 -15.779797
-5.5861068 44.868916 29.180954
-3.1913021 16.899927 -17.941973
-7.9150791 10.099142 -19.630739
4.8058882 6.1552458 13.60615
9.8225346 34.084461 16.599173
14.900146 48.284393 -11.741137
3.043781 24.393368 21.961163
-22.47373 49.886356 -12.046547
1.293677 38.15554 25.234144
14.539682 73.095879 -7.4675088
5.5431242 20.518805 21.918842
1.489375 5.4884882 -8.5377092
15.908585 50.703892 26.352087
-0.18211199 29.663486 1.885269
-16.735758 52.391048 -11.422976
-16.757559 45.460068 -11.516778
12.005574 30.770283 5.9870801
-17.331732 44.274647 -4.1156721
-20.422272 55.06649 -10.135861
-21.814522 -0.57310498 -5.0282912
-22.274536 47.225231 -10.251905
13.822513 19.832893 5.3086929
-17.165522 42.852295 -6.9913368
-19.97142 27.091103 2.2563839
-23.792023 41.357647 -8.6265402
-22.227228 45.69957 -9.53407
-9.6713524 38.240158 -0.26346499
12.320853 52.666073 27.859447
0.75911099 43.459923 29.439299
7.002429 3.578382 -4.2484598
20.991673 81.096817 -3.4616699
8.3352098 44.491768 -13.351697
-2.9239049 5.431818 17.136696
8.4970379 12.440321 -0.579624
-25.704432 27.156406 -7.995563
-21.920313 54.585567 -9.7225246
18.45989 43.382385 19.239836
-6.552979 26.421732 8.8898191
9.0936947 20.567696 20.660048
-13.863032 7.311203 -18.802296
-14.505532 5.0275068 13.346631
-15.724413 43.313751 -7.784349
-0.16155399 46.873028 31.255814
-4.7048001 15.484425 -19.081884
13.168751 74.886597 -6.927496
-19.045387 54.432793 -10.816822
-21.404871 -0.69510603 2.56691
7.7675018 23.126772 21.337498
-10.773953 25.308435 6.9771152
15.961665 40.218262 -2.576833
19.994493 76.627716 -5.203824
3.1574581 47.963448 -16.373222
3.8188951 60.106709 -17.919798
-19.135303 29.077852 -3.4433041
-3.782505 30.034449 7.0048618
14.298396 18.838791 9.3950024
-21.669996 33.821739 -11.807603
-27.793407 12.613424 -5.2943559
-11.598536 13.027832 12.042861
-10.032657 25.861628 -15.372423
-17.233562 0.194166 13.994334
-28.513332 28.29751 -17.361506
20.139055 46.085552 19.562523
-10.093887 49.776371 23.01083
-9.2916126 27.898518 -9.4358664
2.94473 17.117001 -6.2109571
-2.5570951 34.1091 16.674871
-27.951639 59.695526 -2.112433
12.035236 45.665749 -12.362564
13.191968 81.295174 8.8996115
-18.918106 4.4552798 11.392274
-4.550313 57.292171 27.900522
-5.942152 23.66048 14.583435
-22.494005 44.293636 -7.975811
-0.38252601 23.389271 -6.9946189
4.071126 33.970295 19.257324
2.650068 12.842931 -6.207181
-18.356609 72.877914 6.3412199
11.104878 15.655489 16.158598
5.3523941 44.317856 29.611401
0.34477901 56.52713 32.475967
-0.081023 2.6006341 -11.476963
-15.382238 74.061386 7.2238598
-12.814062 -2.718452 13.964627
20.411291 87.769028 5.472755
-12.817935 42.092537 19.290588
-4.6347289 79.339417 1.716837
11.430689 35.232697 1.7429219
2.5170419 21.112783 -5.6747708
9.8204603 36.477985 18.866514
21.776913 52.009537 -4.9377151
-27.821486 57.471268 4.5632348
3.0623 22.375166 -4.2195902
-16.506002 43.53426 -5.1815419
9.2096453 48.003712 -14.901993
3.2368481 8.111104 -4.9188142
-22.191334 2.1993229 -11.525454
0.772811 78.073257 20.339399
-27.393875 33.857124 -10.986358
-8.3999348 70.308014 -12.151214
1.945874 27.049385 21.018753
-28.543007 19.737371 -8.1035814
-24.626278 5.6879349 4.9435272
1.349249 -3.0634689 -0.117449
9.3235912 6.4581351 7.0249791
-14.053686 15.717077 -20.738567
-12.947104 73.543785 14.401925
19.481834 72.475807 8.8406324
-8.0663223 5.5633512 14.072068
-11.733866 18.380466 -20.551928
-16.890717 70.896126 -5.8343749
7.339653 5.9585571 -3.003042
-11.19687 -0.83490801 -14.32024
-30.795662 71.913666 1.945715
-2.132808 40.405834 26.926847
-8.3716078 25.617008 7.8347278
-24.743891 33.35445 -10.29506
12.723388 30.363153 9.4298782
6.6095848 65.409157 26.523092
-1.521147 -2.3436821 2.9023819
-23.124445 0.98262298 -0.832142
0.073504001 59.290154 29.120955
-5.2899718 2.2518179 19.042608
5.4287949 44.903248 -14.418747
-15.974587 72.817276 8.9289198
-23.875437 35.361649 -18.447004
-21.046844 59.275829 8.3741989
-19.882959 -2.197047 -6.0512791
2.108978 33.048744 0.067230001
17.941187 41.270004 -1.046858
9.9090357 10.466028 9.3638306
-5.039165 5.5944142 16.015388
-3.431536 53.23708 31.537985
-2.5108299 26.089718 -3.5945671
-5.140439 -2.9115109 -4.6652861
10.224277 80.513489 -0.314329
-29.244907 30.991125 -12.934032
-15.311138 68.091614 -9.044404
12.366105 80.70536 -1.631911
11.42282 34.877953 15.06023
23.076826 87.741753 6.0524659
22.451614 67.836449 11.158664
5.5950861 8.1307411 13.902239
-10.133306 56.940289 -15.34481
-7.7520399 7.0017781 13.63026
11.390693 31.711395 4.713706
2.6577041 -2.6198461 12.590395
14.700009 22.652969 14.554168
-7.6718268 23.230997 12.346974
-16.425301 7.0140362 -17.938135
-3.762711 32.971493 3.7634561
16.980656 64.542114 21.971701
-8.8965616 -0.49120301 16.566902
13.74573 77.340858 11.53982
6.857461 -0.98653698 -5.373405
-19.655008 52.835098 14.284785
13.717388 17.228312 11.072977
4.049716 38.16185 25.142395
-25.80302 63.900124 -6.6433611
-4.0482349 28.5907 6.2687759
-28.715258 62.83556 -3.0748529
-18.812872 25.532166 5.2627282
12.225341 78.31572 -4.4847851
13.406798 39.306599 -4.0360732
3.575053 34.644817 -1.746892
3.581219 48.686665 31.845383
-14.960654 74.250031 0.21637399
2.732898 30.788149 0.74418199
-22.545456 44.332401 -9.3954926
8.1677904 33.649326 17.814964
22.761223 65.200546 -2.9051011
9.8091097 5.426053 -0.65383798
-28.815044 64.21254 4.3326058
12.47742 17.144726 3.6249311
8.1290321 39.245491 -8.2485828
4.5944991 55.960758 31.501007
-5.6033359 34.193916 6.8207369
-22.43749 26.789951 -19.75177
1.940411 -2.992007 4.2564292
-12.574148 44.215576 -8.9972
-2.4553061 32.588604 15.78294
6.4653468 24.902349 -0.77547097
-20.476204 49.465027 7.5807891
-27.159073 23.785364 -5.6836219
-17.625158 6.2353878 12.22155
-11.662288 43.809589 22.333012
-20.963505 27.371662 -18.472075
-5.253983 65.542755 26.468437
19.393749 50.503296 -8.0643549
24.029165 75.304291 -3.4745669
-20.042227 47.304531 -11.853249
10.51611 5.4524202 2.9566979
0.84350699 76.777596 -8.4464149
-15.504061 74.562859 4.7833681
1.818076 26.8682 -0.53819501
-13.274111 1.65798 16.305244
-25.847412 36.180714 -17.237303
20.365784 87.764236 3.7376859
-14.672154 70.667816 16.25326
-9.8244629 -2.512527 14.953895
-1.3605421 55.563519 32.361988
0.0055089998 8.1438217 17.087709
11.558336 80.702866 9.282753
-20.993029 -1.715012 -0.45282701
7.795188 47.250347 30.987867
0.059351001 54.250813 32.971867
-5.6292782 75.721016 19.002609
1.199288 52.454063 32.888393
21.846603 86.72612 7.012918
-3.9662709 79.887878 5.6638899
-11.84629 -2.790988 4.4043102
-23.919298 53.625111 -6.511529
5.5269508 50.38208 32.169819
-16.224386 49.706333 -11.378764
-16.576683 -2.3878551 -10.830774
4.2197642 26.665833 21.53404
15.121322 78.754242 9.2058458
1.685946 33.750889 18.848034
7.0002751 8.5569067 -2.484875
1.124181 24.447998 -3.6059761
8.9138384 15.871695 18.777975
-2.206964 64.858391 -16.964918
-21.715212 69.080338 -6.9366202
19.953844 73.228569 7.7280111
-4.2195501 27.445934 13.743621
-18.515421 41.234699 -8.0839396
9.6915846 50.883659 30.77063
0.324812 4.9080291 -10.559518
-5.6697888 64.955025 -16.100964
-12.799275 0.118707 16.529305
10.120478 11.149611 3.030895
-14.45397 45.420994 19.065701
24.226452 61.738995 1.131542
-21.924126 29.787268 -17.882036
-29.430338 61.563835 4.361712
12.216236 42.987267 -10.309858
-12.883472 18.59569 11.00579
-29.069126 21.996834 -10.761503
-3.805949 31.811991 12.544699
11.56883 75.998817 17.617949
6.795949 -2.1450109 -4.8899298
-23.501869 28.114405 -7.2169852
-24.628328 23.624641 -19.703058
24.625742 87.667709 3.7519979
-2.445765 56.722141 31.081841
0.010189 22.044428 -8.145937
-13.848903 49.585098 19.994764
0.493379 26.313332 -1.255643
12.936713 35.302937 4.3616881
-5.1503072 27.331778 3.1409431
-1.4496861 51.79734 32.196049
-17.353117 28.867893 -0.958049
-0.491622 33.72044 17.89596
1.908725 -1.841433 16.201115
-21.188723 29.906235 -15.966885
-16.656782 74.410728 3.058079
12.615875 46.269981 28.227571
-3.59795 34.128895 1.711444
-19.708258 56.376488 -10.018247
-23.296833 74.445145 4.228797
3.076426 39.847141 27.389393
17.791397 70.007973 17.967985
-22.049351 18.106676 9.4220781
8.2552176 5.5995851 8.7252264
-25.022659 53.970543 5.7486372
9.5436754 31.781464 2.321398
10.54659 77.31572 -5.5619812
13.813894 76.309242 -5.9659338
-12.352241 68.280815 21.562361
-2.2702589 36.668015 -4.0863829
1.083112 20.181211 -7.9669442
-1.562464 31.074766 16.875446
-18.080318 43.618412 -5.5309749
-20.638826 50.053738 -12.633309
-20.294241 1.761779 9.1476574
-24.389174 12.553 8.5835047
-17.495028 29.403423 -6.792058
-21.83285 30.155781 -11.658055
-19.124062 28.062346 -15.24078
26.27212 85.508568 2.8412299
-15.271295 -2.903017 8.8858099
18.861696 76.713081 7.0161281
-20.310881 36.15855 -12.284535
11.66108 81.578743 1.199886
-8.9453669 74.227669 18.743624
8.9866505 10.125365 0.52134103
-0.73867798 16.379782 -15.674539
23.586639 87.553009 2.67436
-5.5399508 0.56679899 19.593727
-5.6578288 -0.34314299 -12.972673
13.689098 -0.28557199 0.359056
-2.9981029 28.734493 4.3080559
12.207012 -2.2190831 -2.0142009
-8.6578608 1.360445 16.757547
-16.665117 66.24015 17.623192
13.811613 35.780163 6.0662122
-10.025045 40.049114 20.86655
-9.3617659 47.782574 25.470362
-23.282875 64.055977 -8.1423082
-1.291238 24.921118 -5.6697788
4.6412129 -1.711121 -7.0690808
-15.033485 42.986988 -4.2876949
9.5194988 45.779545 29.693539
2.475626 -2.586267 -8.3580437
-0.001267 32.189251 17.983255
-27.842957 28.736624 -10.37998
-19.547926 62.499348 12.775771
12.484477 40.083256 22.654356
-0.29409599 34.262802 -0.51577401
-25.284868 26.477095 -6.3407979
-0.145411 26.015291 20.411961
18.789877 85.053139 -0.23063099
7.098423 10.245064 14.315591
4.2209072 60.890781 27.497442
-24.427244 26.717394 -20.243332
15.373634 45.365917 -9.7385502
-10.462043 13.643265 -20.689972
-3.8298099 43.587193 29.263659
7.865768 32.984535 0.73783898
-23.225311 3.1595781 -7.9565082
-20.8465 43.707645 -12.990664
-2.3614621 -3.2200551 15.166905
-29.20772 31.586468 -14.737031
-0.57857102 27.456219 0.549739
-18.734875 28.546387 -12.662536
-5.4905052 34.066399 10.721827
-21.035936 34.959171 -15.186285
-21.743813 55.875313 8.6306677
22.36507 46.366802 13.677754
-2.6179819 60.306061 27.91678
-15.316351 43.674881 16.056929
6.894351 63.269924 -16.590628
10.57551 33.511017 2.562211
-20.025494 29.015495 -14.080132
-22.086094 45.717331 -6.8828378
20.736605 87.35112 6.6210818
24.107264 63.104687 11.788921
-23.026421 29.508114 -19.21875
-8.7366676 5.2580938 -17.849365
26.142139 83.262337 0.62190801
12.899277 0.34082699 2.84518
5.2976208 23.734993 21.973066
-0.92600697 77.577812 -6.8410878
-17.937452 46.584393 -11.997792
-18.390968 26.944889 -16.75178
-20.785385 42.498367 -6.6006689
-10.285625 37.6516 14.660614
12.66464 49.576809 -13.816873
-18.060141 61.381523 17.659031
21.658766 63.804707 -4.6187911
-18.53089 48.490612 -11.962254
21.312529 67.574455 -4.7940831
-10.644976 14.122962 12.3226
8.7950592 58.489651 -16.743761
-20.235033 37.761063 -14.611656
-24.306061 51.358456 -9.5250597
-11.111888 37.828686 7.8157458
-3.709049 46.536186 30.790949
-3.094804 23.947668 -11.522143
-3.5539401 1.5522161 20.075554
-25.768049 31.999092 -19.692858
-17.081514 74.019073 5.495368
-5.4983521 27.315741 7.4937048
-0.684129 28.416601 1.6517119
13.934256 69.304108 22.603003
-7.976862 77.719589 0.45174801
8.6847439 5.016686 -2.511826
5.3567128 32.479412 19.198486
-16.834522 -1.205403 13.854101
14.264821 80.716637 9.1508474
-17.180164 4.4669299 12.648632
-2.6448269 27.611336 2.4450469
-6.5656199 27.37925 2.226368
-13.550846 22.227098 9.2368183
18.507799 55.734104 -10.404419
-2.780519 55.006432 -17.804001
-18.608458 -2.840379 -2.0538311
-21.776745 29.583748 -10.886643
23.93751 82.856239 -1.416288
5.6671081 -0.705459 10.056727
-17.443478 71.408783 8.2760649
11.98414 -0.74398601 4.0177341
-26.312771 28.994303 -9.7726116
-8.7348242 71.108994 22.278719
-4.1074228 22.67111 -14.925855
19.342936 67.583344 -6.578773
9.0004892 8.8617058 9.6801157
-4.574245 27.793695 5.2386031
-4.7822118 27.95187 9.8226204
-0.71653998 25.91777 -2.509119
13.368778 0.90428001 -0.70728898
-9.6345654 -1.720683 16.000214
6.8360882 33.962856 -0.321334
14.193576 22.094809 6.8776908
-27.469322 75.370773 0.86146098
-17.504421 72.901993 -3.0469711
-13.980885 64.573471 21.673922
-7.8718739 -1.7322659 16.988968
-25.544596 56.014065 6.2753539
5.485168 -1.824074 9.4914007
-3.0790141 6.9873772 16.681313
12.22672 81.858185 7.7827349
-19.503471 15.351918 11.33212
-21.116844 27.777697 -0.49661201
7.9350572 0.168513 7.9484482
29.316401 77.312431 4.2893038
9.2282324 35.264133 17.858011
4.426445 9.6206093 15.999923
-30.460766 65.198807 -0.37451801
-6.0540538 69.265556 24.800161
-17.883108 74.22345 0.55798101
-23.50032 53.019585 -3.3774331
-2.155931 0.79784101 20.334789
-4.5326028 15.308589 18.364534
-23.684406 49.146572 -6.634017
13.17538 82.718712 7.0610938
-6.1621332 25.788988 11.278448
-22.319668 54.171406 8.3699379
-17.336897 68.011665 -8.3203907
-2.1091001 58.791409 28.828423
-26.796127 28.417805 -19.605392
25.012184 61.77763 7.7446051
9.9978523 72.221878 23.024513
10.833283 22.258698 1.1398669
-26.22278 31.031923 -10.339467
22.699345 88.259003 5.2831569
0.85562599 6.3783011 16.506569
5.4291439 0.075364999 -6.2425289
10.260743 5.7381082 1.048522
-19.424314 42.044724 -6.9175382
-15.872335 44.718723 -10.356228
-26.991365 25.507557 -18.700821
-5.8045912 -1.192536 19.294497
-18.77795 19.55427 10.12582
23.172565 50.720955 -1.182601
7.2872481 40.98885 27.367783
15.780652 59.846455 -13.092844
-22.07338 52.859135 -11.564212
3.474062 42.909336 -13.354279
-2.7980189 7.632895 -16.395084
-5.8654108 35.562523 1.168328
0.30078599 -2.834527 -9.3631248
-4.4829478 59.318855 27.256443
-0.038934998 -0.51070702 19.39048
-22.202568 31.809422 -11.902949
-21.49773 31.098242 -13.24915
5.8705859 28.609068 0.42872
6.3272018 33.829548 18.901714
25.880785 86.45153 4.011023
-21.438374 47.407604 -11.275171
-22.197556 43.86599 -11.551897
-14.130532 -1.389653 -13.569104
3.676645 51.329639 -17.516645
-29.282028 71.248535 3.7651119
-23.540239 14.458896 9.2670441
-9.1043062 61.11916 -15.513425
10.186764 4.9519272 5.0737271
-23.685703 49.353104 -10.577793
6.044323 36.019836 20.656843
-0.22266801 18.169737 -13.743895
-29.82366 70.126335 -1.659098
9.8244019 8.3063908 2.971314
-13.663557 42.841034 -6.262094
12.774158 -1.843567 2.1803639
19.239023 41.75293 14.076814
2.933902 -1.577759 -9.3216372
-4.1293321 -2.020421 19.625025
9.5873966 28.667622 18.432571
-23.323332 54.494701 -7.9868569
-28.831745 74.867958 1.843014
17.757971 86.277596 3.0359769
-23.876801 35.891933 -9.5776396
-2.974153 30.212215 4.751133
-22.362206 47.045486 -6.5372839
-19.400488 47.063213 -1.9669991
11.384172 -2.797982 1.782868
11.803008 0.13015699 -3.7274499
-30.655323 63.81329 2.9021621
-13.120162 24.923018 -18.082245
-15.25567 72.998978 -3.2619381
1.748222 10.150927 17.721478
-13.375281 39.629772 9.5426598
-22.123177 52.434021 8.3093672
10.028603 1.059341 -4.5391469
-23.203983 30.796326 -10.870171
-6.3580689 46.791218 -14.049135
1.320937 49.108833 31.826281
-8.6925383 -2.9551401 12.185094
-20.346642 45.782085 -11.90341
-4.233223 11.370226 -18.568338
-22.546928 46.781876 -8.975214
10.054636 9.3419724 5.6320229
6.2288408 34.899117 19.374821
1.346356 28.735924 0.80499297
-22.781721 61.083862 5.1264329
21.048082 57.509186 -6.8522768
-13.0638 -2.024636 15.602987
-10.935829 27.599474 -12.611799
-28.323326 74.160309 -0.82488501
6.7566299 20.204636 -2.4302671
-1.118722 -1.788579 -11.729874
-21.294729 61.77496 5.9200978
-0.38779399 47.15522 -15.910044
12.335931 31.644478 11.839933
17.268297 85.247803 7.6726341
12.941324 -2.1828439 0.220339
3.3441131 35.471924 20.469625
1.646795 19.398117 21.938503
-22.426945 34.513573 -10.674002
-27.274853 74.287712 3.4912429
-21.046688 66.84256 5.1422229
-21.50419 32.675041 -13.245814
-4.0158358 29.840969 9.7358084
-3.7956989 26.87973 -0.582923
-27.899473 31.13063 -18.300632
-21.598909 32.107067 -16.006441
11.819334 1.934203 -2.8744681
-6.4746528 -1.964844 0.036974002
-21.215546 41.651108 -14.502147
-2.574852 3.3406451 -13.251213
2.9264059 24.922316 -2.053489
-14.751451 -1.668842 15.353188
-17.949854 52.353008 -11.482397
-0.506432 20.469692 21.281677
-20.234087 -0.34474099 -10.145454
20.122906 78.254784 6.5724292
13.113215 1.592648 1.443725
-15.321347 0.30810201 15.906115
0.46824399 11.472855 -14.385117
24.527525 53.409786 10.540481
10.688452 56.452271 25.444693
12.937585 34.181618 9.6722431
-1.821936 -0.99581897 20.19631
-7.6021519 26.397696 -12.809707
-19.375999 46.155327 -3.7813239
-21.355501 46.191917 -11.074563
-23.520248 55.752148 -7.136312
11.048044 -2.086576 -3.42379
10.581064 -1.094763 -4.3860512
-8.643713 66.833359 24.715044
-10.575632 28.768436 -3.5657811
-8.630887 54.967751 24.047899
-23.163824 24.016935 4.2151141
-2.0092151 8.4997768 17.188841
-3.6289361 32.84647 14.056921
-10.80635 21.997925 10.477613
-6.9947839 18.389362 -19.505829
-29.061405 26.837677 -10.971822
-24.220425 54.918674 -5.2284942
-8.0181255 67.832451 -13.97514
-6.1399541 5.7798548 -17.297726
-9.1219158 26.672132 4.5535641
7.5805769 30.959312 1.193432
9.7970963 -2.1495259 5.275897
10.282615 81.097557 7.8531332
-20.595064 44.161068 -5.866066
-2.4792459 67.479591 26.477774
-14.332255 47.307758 -10.737153
7.3676252 35.122536 -1.4558589
-3.6641381 69.397629 -14.737585
13.043198 17.055799 13.754589
-24.490358 31.001131 -19.744148
-27.895487 24.309641 -8.252574
-5.7959189 57.075813 26.665277
-0.041528001 34.952545 19.197788
-12.015541 46.239834 22.269997
-15.718781 60.438194 20.576912
-28.011877 23.943932 -16.452368
-24.956757 31.315903 -10.379975
-16.388731 -2.3097651 12.704311
18.671228 40.177109 8.1468458
-27.262569 35.686256 -11.230875
6.1608 41.072598 -11.289108
-26.200869 35.123981 -10.295059
-6.1700692 50.548225 -15.994547
-17.081984 63.874195 -10.269513
-23.683651 56.604843 6.9932718
-2.9878581 29.466661 15.162133
-5.1564412 19.284584 -18.31723
-14.437047 45.28706 -9.6668968
2.6894491 57.385944 -18.350391
3.1416831 73.000557 -12.925116
-11.421759 24.167351 8.2124653
2.1017151 57.208862 31.811523
-28.570154 64.894218 -3.8879819
0.171525 60.447239 28.374985
-26.949051 22.986486 -1.750946
8.5449982 18.806728 20.698467
16.951088 82.554054 8.2925425
-29.456123 73.447472 3.1106269
18.803812 49.280285 23.460461
-6.1849442 41.149548 26.009815
-14.89885 29.276072 -2.793124
-14.464821 50.265427 -11.692595
12.854764 79.571716 9.9780731
-23.954327 74.170311 -2.097641
-12.718478 70.741516 19.111374
6.0736232 68.81163 25.980143
2.4568169 54.977535 32.91272
3.543133 28.754923 0.393078
1.715319 -0.81198502 17.176729
-2.063983 15.40682 20.084232
11.824308 66.886887 -13.081288
-6.4416142 19.001989 16.389492
-19.03653 25.256969 -18.75535
-21.14259 51.533955 -12.515417
18.121502 86.637253 6.1785369
-28.102421 58.128376 1.18765
5.1535611 31.284971 0.56199598
22.17275 46.706322 -0.224107
-28.459408 33.172558 -16.133982
15.05792 48.543781 27.038319
22.223877 80.967262 6.4538078
-15.020526 41.749134 12.899236
-19.965956 23.5345 7.0428281
-27.301945 25.609726 -8.3102617
-5.0434361 8.2284269 15.953735
-22.598547 28.633389 -8.6365538
-21.008959 30.017904 -13.566331
-23.430332 65.786987 4.0141311
-30.843147 69.677574 3.2527161
-1.1566041 12.749087 -16.531645
11.589349 31.882854 13.946185
8.9640026 29.71841 1.892153
-2.961746 31.640928 4.0110588
21.529179 84.835823 -0.89777499
-10.036177 10.784913 12.2149
0.76031297 80.748718 3.4256499
0.33153 -2.5716109 17.699789
-21.971977 50.334488 -3.5280671
-26.563793 7.719511 1.236237
19.114656 60.001129 21.031313
-7.6384029 58.012146 25.244886
9.8684969 52.716709 -16.08091
11.148789 18.719439 1.138119
-26.250469 10.768539 5.7896872
-8.0565691 -1.805335 4.8872452
24.592255 85.432541 0.84382403
-7.9701042 37.7551 19.471125
-23.953306 73.073067 4.4850259
-24.070578 29.441357 -9.8164864
2.6465349 32.60162 19.094826
19.135571 44.199772 -3.7734721
13.43717 72.802589 20.107359
17.875153 52.837883 23.907545
-1.295472 74.513344 -11.118725
-25.332033 20.862997 4.9200482
-16.616671 -2.9003761 -8.677577
7.7489171 68.818382 -14.096712
-1.253251 32.405327 1.956056
-0.94901299 5.4717922 17.266739
-22.098415 21.007845 7.9623361
-19.524454 23.543089 -19.796194
-23.177511 51.17218 -11.484193
-17.503988 44.842735 -2.059088
-20.170429 28.938782 -10.265175
-10.891329 62.38052 24.132557
25.770733 74.45266 -2.03669
-4.1242871 59.780167 -17.523426
-1.655416 -2.0463181 19.476957
16.77972 67.749222 21.184736
9.8814306 81.248047 4.2798829
-3.9452159 32.025452 6.3840108
-5.0004058 75.725922 -8.2200193
-4.4740748 34.378536 14.684858
-24.401682 72.42112 -4.1056371
-18.211363 16.488741 -20.044327
-23.588478 52.650562 -4.9134569
-22.080523 55.962833 -8.6863766
3.066422 6.1315212 -5.3293052
24.514486 51.938244 4.4610209
-9.1876764 20.118826 12.814084
13.157188 15.796963 7.14044
11.258545 -2.947953 -0.52961802
-14.347505 43.912342 -8.2300167
-6.7882252 27.004229 5.0442929
16.92314 71.48024 -7.08111
-11.306347 39.450871 17.945187
-20.369013 71.995369 5.8309808
2.9667461 7.4046168 15.586516
3.5628281 59.61311 28.198553
10.159942 79.100922 -3.253386
-21.254862 38.252987 -16.030931
15.098998 42.916489 23.843153
